ply
format ascii 1.0
element vertex 1255
property float x
property float y
property float z
property uchar red
property uchar green
property uchar blue
end_header
-66.357 -7.30548 -30.0267  255 255 255
42.1671 23.0911 -66.6582  255 255 255
-28.626 -57.9292 36.3324  255 255 255
63.204 48.6647 -100.09  255 255 255
-41.9902 12.8801 -54.5841  255 255 255
-45.0589 10.8092 -52.5044  255 255 255
68.0023 50.1674 -102.872  255 255 255
-71.6022 -54.8956 33.1  255 255 255
-34.7425 -56.5422 34.3446  255 255 255
-52.3305 -6.55908 -30.083  255 255 255
-41.502 10.805 -52.0058  255 255 255
-39.204 12.1791 -53.8607  255 255 255
53.7977 12.8398 -52.6487  255 255 255
34.4143 55.9003 -106.276  255 255 255
54.9842 -47.0207 22.734  255 255 255
66.6673 63.6606 -118.464  255 255 255
-71.079 -28.1088 -3.96948  255 255 255
-60.4939 -42.4352 15.4112  255 255 255
67.4464 -43.0038 18.7769  255 255 255
-61.2549 -21.1903 -11.5853  255 255 255
-81.9494 -45.6833 20.5296  255 255 255
-49.657 -34.9838 6.50239  255 255 255
60.529 -46.2062 22.0108  255 255 255
24.9251 34.2215 -81.1072  255 255 255
23.0384 -11.0941 25.1757  255 255 255
-88.3353 -57.7688 38.3256  255 255 255
6.48325 54.6311 -95.1199  255 255 255
61.9697 -48.6019 25.4413  255 255 255
39.9624 -46.4839 21.5849  255 255 255
47.1653 -35.2506 7.14135  255 255 255
28.9692 27.8752 -72.5254  255 255 255
-61.0508 -32.5554 2.69917  255 255 255
4.79581 24.9036 -68.8703  255 255 255
-49.3256 -9.30359 -27.0653  255 255 255
53.7799 -36.7188 9.19757  255 255 255
32.0448 50.5928 -102.352  255 255 255
-81.9509 -55.4511 34.1474  255 255 255
-49.7781 -36.3521 8.328  255 255 255
-67.6177 -31.134 0.295233  255 255 255
-1.89031 -31.4539 43.1551  255 255 255
-60.8769 -26.7161 -5.48059  255 255 255
42.8242 -52.5999 30.432  255 255 255
57.7521 19.1701 -49.2782  255 255 255
61.1165 -44.731 19.6305  255 255 255
-85.2265 -54.3052 32.6847  255 255 255
37.1126 45.5691 -94.835  255 255 255
-77.1456 24.518 -64.6083  255 255 255
56.6859 -45.3901 20.1079  255 255 255
66.93 67.7816 -121.524  255 255 255
-51.1419 -32.4533 3.1301  255 255 255
45.4787 39.9185 -88.9931  255 255 255
40.2581 -49.5866 25.3557  255 255 255
0.327995 -59.4324 37.5993  255 255 255
-55.3672 -9.66232 -26.2467  255 255 255
48.8953 -48.4397 24.4441  255 255 255
37.75 33.0131 -79.4802  255 255 255
20.026 68.0465 -90.2443  255 255 255
50.8354 -32.4242 2.85455  255 255 255
10.7697 52.2796 -97.0896  255 255 255
52.4003 4.60727 -40.8922  255 255 255
41.5229 -52.9122 29.9926  255 255 255
-60.7854 -41.7318 14.5295  255 255 255
-59.7674 -41.2599 14.0907  255 255 255
-47.9664 -34.8764 6.1019  255 255 255
37.52 17.8998 -59.2959  255 255 255
-93.6492 -9.134 -28.3121  255 255 255
60.8399 -42.3569 17.2427  255 255 255
45.9247 -50.677 26.8712  255 255 255
73.9614 67.814 -123.559  255 255 255
64.2071 50.2323 -101.985  255 255 255
36.0717 16.126 -57.9212  255 255 255
13.8147 66.3391 -89.6063  255 255 255
12.1403 62.6638 -91.1544  255 255 255
66.3784 -43.1907 18.7328  255 255 255
-55.851 -8.59196 -27.7283  255 255 255
-1.27391 18.5102 -60.6431  255 255 255
-78.3221 -0.326555 -39.1142  255 255 255
-55.1557 -53.7713 30.6547  255 255 255
43.8669 -47.4322 23.3873  255 255 255
12.1434 -11.9029 35.997  255 255 255
25.7457 27.4849 -72.6921  255 255 255
-14.9363 1.34528 27.9583  255 255 255
-50.0259 -26.7398 -4.26712  255 255 255
59.5701 -45.6675 20.7562  255 255 255
64.6248 -46.4055 22.9788  255 255 255
48.2705 -46.6982 22.5384  255 255 255
-41.5961 -55.7746 32.9168  255 255 255
53.4565 -34.1031 6.04435  255 255 255
-28.7727 14.8282 -56.8959  255 255 255
-91.3367 -44.5299 20.2386  255 255 255
-85.7503 -53.34 31.7622  255 255 255
59.8975 19.1293 -44.3058  255 255 255
40.3802 -47.393 22.5486  255 255 255
42.5817 -49.2496 24.9476  255 255 255
42.8547 -52.1927 29.123  255 255 255
-35.6653 -53.4713 30.0364  255 255 255
-33.7248 -44.5734 23.1581  255 255 255
48.7545 -43.2292 17.4456  255 255 255
58.3886 20.9736 -48.0678  255 255 255
67.4156 -43.8137 19.2196  255 255 255
47.6499 -25.9604 -4.48288  255 255 255
-84.4037 -54.8506 33.5675  255 255 255
3.45495 62.1072 -85.8875  255 255 255
46.1529 -41.3261 15.124  255 255 255
-41.5605 -53.338 29.8834  255 255 255
56.2073 23.6578 -53.6363  255 255 255
42.9163 -49.6144 25.1615  255 255 255
48.1641 -41.746 15.6792  255 255 255
11.7951 63.5462 -89.484  255 255 255
41.2314 23.3033 -66.4944  255 255 255
-16.7793 29.4788 -76.4791  255 255 255
-135.102 55.1708 -111.637  255 255 255
-54.1967 5.15994 -45.1835  255 255 255
-88.2771 -54.1488 32.5325  255 255 255
-43.1495 11.5877 -53.0151  255 255 255
-95.4341 -6.90236 -31.3823  255 255 255
-23.4265 -9.41432 23.9839  255 255 255
-46.4128 34.1331 -75.6942  255 255 255
54.3259 -43.3659 18.295  255 255 255
39.7743 21.1717 -64.589  255 255 255
-38.93 13.7245 -55.7143  255 255 255
56.1094 29.152 -50.5985  255 255 255
-29.0769 -7.97169 15.6847  255 255 255
-49.2369 38.5283 -70.9086  255 255 255
48.2438 -28.1192 -1.57811  255 255 255
45.5065 -50.6462 26.9083  255 255 255
11.1284 63.7836 -90.1248  255 255 255
-59.7674 -41.2599 14.0907  255 255 255
43.5111 74.1223 -101.231  255 255 255
-22.6351 28.2839 -73.3335  255 255 255
29.8059 -8.02498 15.092  255 255 255
20.9693 15.8293 -57.04  255 255 255
58.8579 18.9818 -47.0891  255 255 255
52.4352 -44.2659 19.005  255 255 255
0.962135 48.202 -97.2373  255 255 255
31.3572 52.1154 -103.713  255 255 255
-48.6849 -24.0372 -7.41836  255 255 255
23.6444 47.5161 -97.7242  255 255 255
58.012 63.1203 -117.453  255 255 255
29.244 26.9677 -71.4949  255 255 255
-50.392 -34.4061 4.99849  255 255 255
-89.8817 -56.7632 37.1781  255 255 255
41.5229 -52.9122 29.9926  255 255 255
58.1734 -37.5547 10.5206  255 255 255
58.8546 14.8725 -49.3374  255 255 255
-29.1744 8.06457 -48.4543  255 255 255
34.7626 47.3873 -97.9247  255 255 255
58.7892 -18.4773 -14.1286  255 255 255
17.7006 -58.7259 36.9592  255 255 255
54.6281 -42.538 16.9649  255 255 255
24.8904 15.6574 -57.0822  255 255 255
62.0438 -42.8683 17.6543  255 255 255
-53.1375 -1.18594 -36.8726  255 255 255
-38.4636 -51.7721 28.0829  255 255 255
41.7925 36.9897 -84.341  255 255 255
-72.0021 -54.7483 32.7725  255 255 255
63.8508 -18.6041 -9.80451  255 255 255
28.56 70.5079 -93.733  255 255 255
-81.9896 -52.8699 30.4493  255 255 255
-35.9032 -53.5245 30.2906  255 255 255
29.1958 21.9986 -65.4809  255 255 255
61.1126 -48.1278 24.8893  255 255 255
31.7824 9.68536 -48.6052  255 255 255
33.3405 34.0165 -81.3046  255 255 255
45.8895 -44.1494 18.5645  255 255 255
14.7268 -8.75416 33.3972  255 255 255
35.4566 11.8716 -51.0268  255 255 255
-55.6681 -53.8604 30.557  255 255 255
-66.9973 -10.8081 -24.5819  255 255 255
65.5569 -16.62 -2.67935  255 255 255
51.1435 53.4851 -105.99  255 255 255
48.9304 54.5512 -107.191  255 255 255
16.3714 -14.8679 32.7057  255 255 255
52.0609 -40.4426 14.091  255 255 255
39.641 -50.1011 25.9707  255 255 255
36.7166 34.9459 -81.6392  255 255 255
54.2618 -46.4101 20.8504  255 255 255
-32.9479 15.5298 -58.0287  255 255 255
26.1465 -36.7281 22.9165  255 255 255
-28.8058 -11.8771 21.1839  255 255 255
6.04327 -60.4975 38.4745  255 255 255
-24.8708 16.3671 -58.732  255 255 255
53.5581 -40.1124 13.3442  255 255 255
51.0389 2.14025 -39.7618  255 255 255
-55.7179 -30.5332 0.306578  255 255 255
60.1752 -42.6131 17.1554  255 255 255
-22.0168 13.3821 -54.6794  255 255 255
-76.7967 -59.7494 39.9972  255 255 255
59.9388 17.5747 -46.7549  255 255 255
-28.7196 9.38014 -50.2902  255 255 255
61.2341 15.6364 -43.1363  255 255 255
28.3862 25.9928 -70.9655  255 255 255
63.7325 -27.8502 -1.2399  255 255 255
-17.5193 -23.8399 36.3379  255 255 255
0.0369942 -62.3371 41.8175  255 255 255
-30.6089 -55.8448 33.4893  255 255 255
16.5855 64.257 -92.2487  255 255 255
46.6545 42.7478 -91.6779  255 255 255
45.5138 -39.5288 12.6455  255 255 255
23.1872 13.212 -53.4885  255 255 255
10.2204 67.1883 -86.2754  255 255 255
48.0741 -49.3675 25.2273  255 255 255
45.0889 -40.9084 14.3683  255 255 255
-77.294 -0.478495 -39.9573  255 255 255
-23.6476 -31.4568 31.1578  255 255 255
-0.403431 21.3599 -64.8439  255 255 255
27.6937 53.4346 -105  255 255 255
-17.6034 12.991 -53.8777  255 255 255
0.389281 20.7672 -64.0272  255 255 255
32.6153 37.8722 -85.8627  255 255 255
20.8655 39.8669 -88.0476  255 255 255
-3.42734 -57.7183 37.7253  255 255 255
25.0275 43.2356 -92.7349  255 255 255
5.35979 -27.9939 41.4295  255 255 255
-57.4499 -8.3699 -28.3313  255 255 255
-60.6859 -24.2713 -7.90995  255 255 255
-76.5764 24.2042 -64.4476  255 255 255
64.9788 65.3784 -120.809  255 255 255
32.3073 25.6999 -71.121  255 255 255
61.718 -44.3964 19.7604  255 255 255
65.6407 48.8943 -100.847  255 255 255
58.631 15.5899 -49.6179  255 255 255
34.6327 -52.9753 29.8503  255 255 255
46.4947 -47.4016 22.9154  255 255 255
39.4504 -51.2448 27.5729  255 255 255
25.2074 26.7269 -71.72  255 255 255
-34.7363 3.11328 -42.3837  255 255 255
58.5917 12.789 -50.8383  255 255 255
-93.1785 -52.7043 31.3572  255 255 255
45.067 -45.4183 20.4127  255 255 255
-29.7431 14.5953 -57.3893  255 255 255
49.846 -48.2607 23.9395  255 255 255
-80.1597 1.19816 -41.0378  255 255 255
49.0638 -40.7039 14.9429  255 255 255
48.2536 -46.5429 21.5802  255 255 255
57.3535 -17.4958 -15.9007  255 255 255
-86.093 -58.848 38.8904  255 255 255
58.3241 15.3938 -50.692  255 255 255
41.1338 -48.467 24.242  255 255 255
59.2349 14.9716 -47.4027  255 255 255
-51.9354 -33.361 3.87576  255 255 255
59.8975 19.1293 -44.3058  255 255 255
61.0156 16.4472 -43.5335  255 255 255
25.554 -13.6502 23.7784  255 255 255
45.7476 -49.2823 25.8222  255 255 255
-91.3367 -44.5299 20.2386  255 255 255
30.9509 -14.0144 22.943  255 255 255
44.2716 -41.7129 15.6027  255 255 255
35.1165 -53.7717 30.766  255 255 255
49.4689 -47.8037 24.0695  255 255 255
45.7452 -29.9942 0.354423  255 255 255
-3.75866 16.8664 -58.3004  255 255 255
-50.392 -34.4061 4.99848  255 255 255
-91.1694 -46.0104 21.6322  255 255 255
7.4764 63.6798 -84.7673  255 255 255
8.07226 62.9179 -83.6479  255 255 255
54.6029 80.7265 -105.173  255 255 255
46.2216 -45.5978 20.4979  255 255 255
-35.3167 -57.7031 35.4365  255 255 255
-51.0109 -9.05716 -26.8828  255 255 255
-30.1597 -58.0206 36.1038  255 255 255
60.2035 -15.7334 -16.8599  255 255 255
64.0566 54.5931 -108.543  255 255 255
35.3601 48.4458 -99.1292  255 255 255
-53.1629 11.0062 -52.4176  255 255 255
-63.0262 16.2803 -59.7338  255 255 255
28.0566 -12.0007 20.9284  255 255 255
0.610304 -27.9072 41.6117  255 255 255
39.147 15.7423 -57.127  255 255 255
-20.4174 30.7719 -76.5592  255 255 255
39.1435 -46.9732 22.4579  255 255 255
-82.9376 -37.5648 9.86565  255 255 255
44.9094 -49.6816 25.9113  255 255 255
45.4666 -46.7945 22.152  255 255 255
63.5007 -44.5642 19.6279  255 255 255
56.6483 42.2244 -40.6624  255 255 255
-29.7431 14.5953 -57.3893  255 255 255
-86.0746 -50.7355 27.6219  255 255 255
20.3595 14.1418 -55.3413  255 255 255
-46.6774 -8.67393 -27.4323  255 255 255
53.8681 31.2824 -76.8109  255 255 255
-50.0437 -29.3033 -0.709091  255 255 255
33.3303 11.3115 -51.3744  255 255 255
58.9218 9.40954 -5.18428  255 255 255
-24.8692 -59.1522 37.6072  255 255 255
-28.7727 14.8282 -56.8959  255 255 255
-115.46 -23.3104 -8.00682  255 255 255
-56.8126 -29.5769 -1.104  255 255 255
-24.704 14.4065 -56.8642  255 255 255
47.4009 -25.6649 -4.79675  255 255 255
-31.3749 29.8264 -76.1575  255 255 255
39.9159 -51.4024 27.898  255 255 255
9.36523 60.9569 -90.1451  255 255 255
-89.232 -54.3741 32.7216  255 255 255
17.3822 -27.3585 40.7657  255 255 255
-28.5746 19.3755 -62.1042  255 255 255
-55.3675 1.74427 -40.7414  255 255 255
61.3902 16.2137 -42.9638  255 255 255
70.4885 49.0134 -99.4958  255 255 255
28.7659 68.8999 -96.5569  255 255 255
-37.2833 -49.0961 24.4139  255 255 255
57.0386 44.8429 -94.1454  255 255 255
20.8846 17.3372 -59.3205  255 255 255
47.8165 -28.1912 -1.90162  255 255 255
61.0929 5.38271 -44.1403  255 255 255
55.8765 -45.4315 19.6308  255 255 255
-38.5636 8.94915 -50.4685  255 255 255
67.4066 49.0414 -101.131  255 255 255
-42.2197 -61.9446 40.9481  255 255 255
-46.6871 -25.8193 -5.76536  255 255 255
-123.462 -15.6581 -17.8957  255 255 255
-41.1817 13.7114 -55.6455  255 255 255
2.77279 59.8842 -87.8011  255 255 255
-54.5984 -7.52893 -28.708  255 255 255
-35.6052 13.692 -55.5412  255 255 255
-28.5068 24.7585 -70.1363  255 255 255
45.0858 -44.2303 19.2189  255 255 255
-26.1223 -59.3279 37.6816  255 255 255
45.9247 -50.677 26.8712  255 255 255
-40.3644 -59.7161 37.9117  255 255 255
2.04701 63.7657 -85.5468  255 255 255
-62.0298 19.8874 -63.5522  255 255 255
-42.2044 -52.7072 29.233  255 255 255
-43.6523 10.5871 -51.861  255 255 255
23.0743 -56.7978 34.673  255 255 255
-29.5273 14.168 -56.2291  255 255 255
52.7542 52.4584 -104.369  255 255 255
64.5935 -14.2698 -4.1996  255 255 255
-55.6681 -53.8604 30.557  255 255 255
24.9251 34.2215 -81.1073  255 255 255
-34.0416 -56.6069 34.0257  255 255 255
-84.8536 -54.1438 32.5604  255 255 255
-30.2366 6.75647 -46.3556  255 255 255
-88.0146 -49.6245 26.0828  255 255 255
-64.2906 -38.3151 10.1523  255 255 255
-52.6527 -46.6135 20.8643  255 255 255
61.3554 -44.3472 19.2448  255 255 255
41.3012 -48.0864 23.5934  255 255 255
23.1604 -40.712 28.5241  255 255 255
58.8529 -41.0966 15.6489  255 255 255
43.1135 -48.3222 24.6319  255 255 255
47.5904 -46.5646 21.9269  255 255 255
40.6416 -48.6842 24.3081  255 255 255
62.125 -45.8456 22.2968  255 255 255
40.7693 -50.7162 26.8824  255 255 255
-87.6241 -54.7641 33.4146  255 255 255
3.36815 42.5836 -91.6265  255 255 255
41.406 -43.4143 17.5857  255 255 255
-29.3044 -57.8017 35.6254  255 255 255
73.5671 66.0835 -121.841  255 255 255
-65.8194 25.305 -59.0382  255 255 255
62.258 8.16334 -45.1908  255 255 255
40.478 -50.786 26.0913  255 255 255
64.122 55.9238 -109.288  255 255 255
-4.34834 -62.7273 41.7615  255 255 255
6.52586 60.2712 -90.8226  255 255 255
61.1619 43.7968 -93.7466  255 255 255
-73.8792 -1.47712 -37.3105  255 255 255
-56.1039 -32.2968 2.60578  255 255 255
65.6573 -44.305 19.9908  255 255 255
26.9816 -16.9283 26.9988  255 255 255
-59.423 -5.81472 -30.7993  255 255 255
59.1563 12.9933 -45.1485  255 255 255
17.3549 -12.3361 31.3434  255 255 255
63.7692 -44.0973 21.9461  255 255 255
-30.1787 -61.9448 41.2711  255 255 255
-58.1803 31.4325 -64.0096  255 255 255
-52.6853 -61.4337 40.9345  255 255 255
-45.7085 -14.253 -20.0474  255 255 255
-32.2094 12.992 -53.682  255 255 255
-26.4101 20.4001 -63.7191  255 255 255
44.9619 -46.2292 21.1341  255 255 255
-30.0777 15.278 -57.5304  255 255 255
51.0686 -31.0864 2.14468  255 255 255
50.8354 -32.4242 2.85459  255 255 255
-29.498 -11.62 20.8428  255 255 255
29.1411 68.0871 -98.1498  255 255 255
60.2418 -44.5211 19.6835  255 255 255
-23.7246 -9.7263 24.2632  255 255 255
-33.7345 9.92613 -50.6548  255 255 255
32.0675 24.1602 -67.8738  255 255 255
54.927 -39.0036 12.1091  255 255 255
59.1912 -45.2036 20.6239  255 255 255
-43.29 18.0724 -61.8674  255 255 255
42.2351 77.6275 -100.027  255 255 255
-98.2812 -51.7399 30.9877  255 255 255
38.4625 55.7635 -108.427  255 255 255
-21.8449 -62.8449 42.5018  255 255 255
-29.0836 -11.9929 21.5448  255 255 255
56.111 40.9582 -89.3145  255 255 255
40.931 -49.5228 25.631  255 255 255
63.5727 -44.8925 19.9878  255 255 255
-56.2685 -32.1181 3.28116  255 255 255
36.8558 16.0411 -57.426  255 255 255
38.3417 16.561 -58.4116  255 255 255
-46.6871 -25.8193 -5.76537  255 255 255
-69.2707 -29.0907 -2.17846  255 255 255
-64.2133 -38.7394 10.7999  255 255 255
-39.7563 -57.1365 35.0537  255 255 255
67.4826 -43.7423 20.0534  255 255 255
76.3209 65.9379 -123.085  255 255 255
-22.6911 14.764 -56.8127  255 255 255
17.8081 -17.6313 34.0621  255 255 255
66.4122 -47.099 24.2491  255 255 255
-25.5057 53.1595 -70.8671  255 255 255
47.499 -48.9412 24.7449  255 255 255
-21.2885 -49.4657 30.1086  255 255 255
-92.3656 -11.9799 -24.9372  255 255 255
43.747 43.9747 -93.6388  255 255 255
-58.3008 29.4209 -64.835  255 255 255
-2.5223 15.7948 -57.4453  255 255 255
-85.6912 3.65443 -44.4432  255 255 255
64.2331 -41.7431 16.5658  255 255 255
-35.8998 -53.166 29.97  255 255 255
23.2604 -19.3754 30.4239  255 255 255
-87.1939 -55.1236 34.1302  255 255 255
-29.1875 33.8624 -81.1133  255 255 255
24.9923 17.9799 -60.7325  255 255 255
41.5075 -49.1167 24.7367  255 255 255
-52.8579 32.1228 -73.3889  255 255 255
-49.0245 -35.7738 6.64385  255 255 255
-34.7168 2.66882 -41.2355  255 255 255
-56.8729 34.1049 -68.8939  255 255 255
-60.4939 -42.4352 15.4112  255 255 255
-58.7346 32.6124 -66.8069  255 255 255
60.2535 -44.7609 20.4305  255 255 255
-75.2466 -2.87197 -35.7676  255 255 255
-68.8102 -13.5928 -21.8679  255 255 255
-56.5076 30.6349 -67.4079  255 255 255
23.1872 13.212 -53.4884  255 255 255
-18.9872 -22.3328 35.4151  255 255 255
-10.4512 28.2196 -73.722  255 255 255
-0.0556698 19.0023 -61.4024  255 255 255
-27.1846 31.1839 -77.6406  255 255 255
-39.2975 -57.1876 35.1889  255 255 255
-42.2044 -52.7072 29.233  255 255 255
42.5923 -50.7833 27.3979  255 255 255
4.11258 45.2752 -95.2832  255 255 255
-87.818 -54.4763 33.232  255 255 255
-46.7747 -13.7319 -5.71772  255 255 255
36.6105 28.919 -74.2842  255 255 255
-30.1164 33.4892 -80.7283  255 255 255
-81.3016 2.7188 -43.5831  255 255 255
-84.5116 -60.6613 42.1197  255 255 255
60.7482 -14.2739 -14.1928  255 255 255
23.8266 17.9839 -59.7573  255 255 255
61.7502 -44.0077 19.6897  255 255 255
7.4728 -0.536029 33.107  255 255 255
-75.3226 4.14803 -44.1557  255 255 255
-38.632 11.8921 -53.4318  255 255 255
39.5524 -51.6294 27.991  255 255 255
-22.7424 -57.2848 34.871  255 255 255
60.537 -12.519 -13.4721  255 255 255
36.966 14.6936 -55.8313  255 255 255
58.4264 -45.6313 20.598  255 255 255
37.52 17.8998 -59.296  255 255 255
28.9458 32.3274 -77.5922  255 255 255
-34.8974 8.40175 -48.0431  255 255 255
-27.5421 -56.9536 34.6364  255 255 255
-26.9044 33.5602 -81.1351  255 255 255
-60.5818 -42.0804 14.6788  255 255 255
36.9216 18.94 -61.0662  255 255 255
29.0483 24.4807 -68.8551  255 255 255
-35.1709 -49.6004 25.5695  255 255 255
-89.1963 -51.8072 29.5657  255 255 255
-94.6371 -52.2745 30.905  255 255 255
60.3274 72.7914 -113.828  255 255 255
62.7866 -20.8274 -9.78218  255 255 255
27.5186 -12.2108 21.2494  255 255 255
50.02 -46.793 22.0453  255 255 255
-38.0786 -52.282 28.6686  255 255 255
-27.7556 19.9262 -63.6951  255 255 255
40.7071 -48.8946 24.7246  255 255 255
53.803 31.3754 -77.423  255 255 255
-31.5768 32.5933 -79.6754  255 255 255
-97.7288 -39.8465 12.7517  255 255 255
62.2581 8.16334 -45.1908  255 255 255
67.5144 -26.8458 -2.8942  255 255 255
57.0044 46.9118 -96.3824  255 255 255
-27.1196 31.9679 -78.7224  255 255 255
-32.6374 -44.7865 23.7338  255 255 255
-53.3798 -8.18075 -28.4008  255 255 255
32.1995 32.7856 -79.4532  255 255 255
-36.5999 -54.9472 32.062  255 255 255
27.2654 38.3714 -85.9659  255 255 255
-36.2504 2.72903 -41.649  255 255 255
-22.7166 15.2258 -56.6675  255 255 255
45.3939 84.6777 -97.6615  255 255 255
24.9047 17.5826 -59.0388  255 255 255
42.1961 72.7549 -102.742  255 255 255
-42.6131 -53.5947 30.1981  255 255 255
5.61826 -60.8146 39.8835  255 255 255
-19.609 -25.3486 38.0781  255 255 255
-53.3276 -2.65641 -35.4671  255 255 255
7.85926 51.2838 -95.5767  255 255 255
44.6207 -35.5333 7.05175  255 255 255
64.5104 60.153 -115.652  255 255 255
7.37025 44.7276 -95.2379  255 255 255
-58.1803 31.4325 -64.0096  255 255 255
48.7096 -49.1885 24.9581  255 255 255
61.234 15.6364 -43.1362  255 255 255
-49.657 -34.9838 6.50238  255 255 255
-29.2831 20.472 -64.1941  255 255 255
61.5399 -46.6309 23.0617  255 255 255
-49.3256 -9.30359 -27.0653  255 255 255
-0.840962 23.058 -67.2563  255 255 255
13.6735 63.0172 -90.9175  255 255 255
-79.6787 25.2351 -65.5134  255 255 255
59.3185 20.5582 -44.9012  255 255 255
61.3048 17.3215 -42.353  255 255 255
49.0881 70.1794 -110.722  255 255 255
-113.861 16.724 -62.856  255 255 255
35.2776 32.4961 -78.7282  255 255 255
50.7346 -46.1283 21.4053  255 255 255
-49.519 11.7049 -53.514  255 255 255
-75.2879 0.538726 -39.6768  255 255 255
58.4264 -45.6313 20.598  255 255 255
32.4908 10.0833 -49.4313  255 255 255
30.9583 24.0915 -67.9511  255 255 255
-64.4293 27.1367 -62.0823  255 255 255
-94.0012 -12.181 -24.5841  255 255 255
61.3454 32.5539 -77.8302  255 255 255
55.3035 -39.3478 12.2635  255 255 255
-35.9273 16.1885 -59.1841  255 255 255
-56.5484 29.9625 -64.5917  255 255 255
36.3644 41.9433 -89.9841  255 255 255
70.3225 47.2237 -98.2455  255 255 255
-54.6466 -10.0672 -25.6462  255 255 255
25.1195 26.688 -71.0839  255 255 255
42.6208 -51.9084 29.0023  255 255 255
-30.3295 -58.5757 36.9545  255 255 255
-31.5843 -58.5997 36.9358  255 255 255
-52.404 -54.9379 32.3546  255 255 255
-76.7921 41.1053 -50.609  255 255 255
41.7657 -45.2667 19.811  255 255 255
-54.557 -53.3868 30.2255  255 255 255
-85.8087 -60.1006 41.2375  255 255 255
-25.5142 19.8635 -63.5258  255 255 255
17.7006 -58.7259 36.9592  255 255 255
39.6973 -48.2399 23.7748  255 255 255
44.0039 -51.4538 28.1861  255 255 255
-85.8215 2.91164 -43.3036  255 255 255
56.0708 17.5311 -6.77283  255 255 255
25.742 22.5285 -66.2556  255 255 255
2.49752 60.5785 -87.2296  255 255 255
-48.818 -10.7991 -23.8012  255 255 255
12.0831 60.6132 -92.6432  255 255 255
-86.0929 -58.8479 38.8905  255 255 255
48.1639 47.4514 -97.6508  255 255 255
-16.1649 21.1847 -64.6498  255 255 255
40.1477 -52.013 28.5098  255 255 255
49.5135 -27.3568 -2.56704  255 255 255
38.5083 30.9677 -75.2699  255 255 255
25.207 16.5466 -58.4897  255 255 255
64.9905 42.7831 -91.3174  255 255 255
-35.9032 -53.5245 30.2906  255 255 255
-39.8484 -50.8169 27.1959  255 255 255
29.0173 -13.6848 22.6668  255 255 255
23.115 26.5185 -71.2244  255 255 255
59.1999 17.6537 -47.9853  255 255 255
-20.1437 5.83895 -1.92139  255 255 255
60.0393 -44.9765 21.0904  255 255 255
72.4288 60.1926 -114.155  255 255 255
-17.7348 19.827 -63.218  255 255 255
-57.6765 -4.61063 -32.4523  255 255 255
-67.4763 20.1057 -64.8122  255 255 255
-11.7221 1.17167 30.7181  255 255 255
24.9922 17.9799 -60.7323  255 255 255
41.9371 -41.4331 15.3233  255 255 255
14.8178 63.8536 -91.2315  255 255 255
44.4028 80.3661 -100.28  255 255 255
58.1868 17.3333 -49.8115  255 255 255
59.5386 13.5848 -47.3967  255 255 255
-16.2316 21.8763 -64.8923  255 255 255
44.9619 -46.2292 21.1341  255 255 255
-49.3787 -35.817 7.35759  255 255 255
-52.6527 -46.6135 20.8643  255 255 255
-128.15 -12.287 -22.5153  255 255 255
62.7058 -45.9939 22.5177  255 255 255
62.4539 8.69105 -44.5841  255 255 255
34.7639 -51.4435 27.2431  255 255 255
-94.84 -6.25452 -31.7755  255 255 255
36.2212 -54.4635 31.702  255 255 255
33.3777 74.5812 -96.5164  255 255 255
-88.8646 -49.6478 25.8605  255 255 255
-30.5896 17.5627 -60.405  255 255 255
4.34242 -49.8383 35.1859  255 255 255
-43.2426 -41.3047 14.3992  255 255 255
57.5975 42.2535 -91.2923  255 255 255
57.7481 -17.1685 -15.7098  255 255 255
37.668 -50.35 26.2258  255 255 255
-4.73203 -28.754 42.6531  255 255 255
-88.638 -53.8613 32.1742  255 255 255
-116.37 -9.21737 -27.357  255 255 255
-49.5189 11.7049 -53.5139  255 255 255
-75.7683 -59.8058 40.4757  255 255 255
-47.478 -37.487 9.30573  255 255 255
-48.1157 -26.3982 -4.7974  255 255 255
20.0882 -49.6518 29.6809  255 255 255
-32.7939 8.65086 -49.7358  255 255 255
42.6036 -41.3132 15.1142  255 255 255
-34.7363 3.11328 -42.3836  255 255 255
7.65194 -60.204 38.5801  255 255 255
-81.3989 25.4462 -65.0454  255 255 255
52.7532 13.259 -53.4275  255 255 255
58.9536 51.3462 -101.045  255 255 255
20.3852 17.1815 -59.9398  255 255 255
-77.6985 -57.3027 36.4818  255 255 255
7.49823 45.8074 -95.8997  255 255 255
22.6314 21.8157 -65.8751  255 255 255
-88.3356 -55.6367 34.6915  255 255 255
59.9914 19.1313 -39.9344  255 255 255
-1.03631 19.5802 -61.8351  255 255 255
67.0595 51.6826 -103.36  255 255 255
-39.5028 -60.985 39.3231  255 255 255
61.0847 -47.9331 24.5459  255 255 255
-81.7024 27.0858 -63.6654  255 255 255
24.4076 -55.9944 33.5321  255 255 255
27.058 -18.0443 28.168  255 255 255
50.398 -24.9354 -5.73634  255 255 255
-38.6081 -56.7989 34.5656  255 255 255
-31.6173 -60.9811 39.5658  255 255 255
-26.061 -57.4821 34.7956  255 255 255
62.8728 -44.4145 19.3601  255 255 255
4.92425 -61.1006 38.2469  255 255 255
57.1715 -45.8932 21.3346  255 255 255
47.4375 -52.4404 29.7278  255 255 255
-28.6205 -59.5942 38.0356  255 255 255
-29.0923 -58.6465 36.954  255 255 255
4.37663 41.1472 -89.9713  255 255 255
4.37662 41.1472 -89.9713  255 255 255
60.9487 -49.1601 26.3557  255 255 255
44.9924 -42.8943 17.3135  255 255 255
-42.9241 -50.2727 25.9398  255 255 255
-34.9751 3.65562 -42.6285  255 255 255
6.98537 -59.8567 38.3695  255 255 255
55.1348 82.4375 -104.733  255 255 255
40.8763 -48.4038 23.9173  255 255 255
0.0811639 -62.2723 41.1302  255 255 255
-40.5065 -51.6397 27.8749  255 255 255
42.094 -47.8023 23.3542  255 255 255
39.5154 -50.6712 26.4908  255 255 255
-25.6514 13.033 -55.1652  255 255 255
42.7022 -48.1843 23.4246  255 255 255
91.0811 94.7848 -115.956  255 255 255
-79.3671 64.1748 -29.4044  255 255 255
-79.3671 64.1748 -29.4044  255 255 255
-25.1419 72.9551 -58.62  255 255 255
64.8891 89.3941 -104.011  255 255 255
77.775 91.4221 -109.71  255 255 255
-63.242 66.4733 -38.3111  255 255 255
52.1316 87.3977 -99.8754  255 255 255
-26.657 72.5341 -58.1123  255 255 255
-90.0426 61.7999 -23.2694  255 255 255
82.0584 91.8235 -111.904  255 255 255
-83.2101 62.9155 -27.389  255 255 255
-75.4348 64.3569 -32.3054  255 255 255
-32.2817 71.2105 -55.1979  255 255 255
77.662 91.0612 -110.623  255 255 255
-26.1893 72.1078 -58.6822  255 255 255
-26.1893 72.1078 -58.6821  255 255 255
63.5152 59.0767 -11.2291  255 255 255
63.5152 59.0766 -11.2291  255 255 255
-42.8525 69.0387 -50.0139  255 255 255
-28.0076 71.5573 -58.3349  255 255 255
-80.9798 62.7993 -29.5693  255 255 255
-55.6572 66.6102 -42.8134  255 255 255
-55.6572 66.6102 -42.8134  255 255 255
-45.903 67.9852 -47.6133  255 255 255
62.1365 87.2695 -103.646  255 255 255
78.6629 90.2313 -111.687  255 255 255
61.6544 59.5209 -14.6287  255 255 255
16.9622 79.0351 -82.5104  255 255 255
45.5573 83.7477 -95.5896  255 255 255
62.5994 87.0448 -104.416  255 255 255
24.478 79.8504 -85.5424  255 255 255
-74.7172 63.1938 -33.2877  255 255 255
62.0588 86.424 -104.423  255 255 255
61.669 58.9852 -14.8723  255 255 255
76.1051 88.9168 -111.352  255 255 255
59.8685 60.0409 -19.1661  255 255 255
59.8595 60.0412 -19.1564  255 255 255
-61.2901 65.072 -41.0822  255 255 255
62.9087 58.0456 -12.541  255 255 255
-62.7517 64.6809 -40.0816  255 255 255
-27.493 70.3347 -59.3711  255 255 255
-75.4193 62.5043 -32.6119  255 255 255
-75.4628 62.6176 -33.0198  255 255 255
-62.2924 64.6899 -40.5035  255 255 255
0.940547 75.0988 -74.166  255 255 255
57.671 61.3681 -24.4418  255 255 255
-77.0015 62.5954 -33.4612  255 255 255
-63.9296 64.099 -39.4053  255 255 255
-56.6204 65.25 -43.5809  255 255 255
-56.5787 65.2641 -43.6322  255 255 255
64.7094 56.3737 -8.40232  255 255 255
77.8266 88.1102 -112.1  255 255 255
-75.394 62.2176 -33.3664  255 255 255
85.379 89.6582 -116.445  255 255 255
-31.5582 69.2101 -57.4931  255 255 255
5.02277 75.4043 -76.8589  255 255 255
47.9651 82.9888 -98.5485  255 255 255
47.965 82.9887 -98.5484  255 255 255
73.8609 87.4146 -110.448  255 255 255
-78.4997 61.765 -31.7971  255 255 255
61.4839 58.4272 -15.9089  255 255 255
9.61024 75.5246 -78.3241  255 255 255
32.9664 80.0666 -90.8263  255 255 255
-76.861 62.2109 -34.397  255 255 255
61.4711 58.2837 -16.6398  255 255 255
61.4711 58.2837 -16.6398  255 255 255
17.8328 76.9421 -83.1728  255 255 255
-68.4963 62.8089 -37.7348  255 255 255
-62.3725 64.0663 -42.0221  255 255 255
-62.366 63.7869 -41.0257  255 255 255
-53.6329 65.3233 -46.5424  255 255 255
-42.5163 66.8398 -51.8613  255 255 255
52.0592 83.1203 -100.844  255 255 255
64.3093 55.9337 -9.46562  255 255 255
-63.826 63.5766 -40.941  255 255 255
-63.829 63.5271 -40.8302  255 255 255
1.81168 74.068 -75.5839  255 255 255
84.3446 88.4802 -116.237  255 255 255
-55.0065 64.8284 -45.6098  255 255 255
18.4529 76.8664 -84.4785  255 255 255
-36.2505 67.5836 -55.6428  255 255 255
0.583503 73.5931 -74.7879  255 255 255
-79.0077 60.834 -32.1834  255 255 255
78.7795 87.135 -113.932  255 255 255
63.0805 56.5649 -12.367  255 255 255
-65.4837 62.8239 -39.6801  255 255 255
-54.2582 64.4267 -46.4994  255 255 255
58.6754 83.14 -104.406  255 255 255
-81.9782 60.5194 -32.3365  255 255 255
-53.5758 64.283 -46.2999  255 255 255
59.9745 58.2043 -20.7697  255 255 255
-86.1249 59.0706 -28.1282  255 255 255
-54.5458 63.699 -46.1801  255 255 255
-71.927 60.5872 -34.8342  255 255 255
62.2356 56.3416 -15.3727  255 255 255
-56.7245 63.1817 -44.8985  255 255 255
-55.6046 63.5382 -46.1455  255 255 255
63.8169 55.0532 -10.8096  255 255 255
-72.6182 60.3105 -34.4781  255 255 255
-69.1211 61.2585 -38.2796  255 255 255
47.4604 80.3834 -100.014  255 255 255
-43.9255 65.074 -52.1932  255 255 255
-43.9031 64.9488 -51.8469  255 255 255
64.1616 54.8765 -11.4278  255 255 255
70.6293 83.933 -111.084  255 255 255
53.9414 80.7206 -103.555  255 255 255
57.96 81.5337 -105.911  255 255 255
-60.8394 61.9059 -43.375  255 255 255
59.8933 81.5083 -106.262  255 255 255
-100.524 60.0059 -35.348  255 255 255
-92.7803 57.301 -26.0661  255 255 255
-92.6263 57.0655 -25.2988  255 255 255
-74.2689 60.1831 -37.0709  255 255 255
52.0788 80.1293 -102.678  255 255 255
81.4845 85.0673 -116.74  255 255 255
63.5978 54.6475 -12.4626  255 255 255
-68.677 60.7975 -39.5384  255 255 255
-42.3128 64.5099 -53.7966  255 255 255
-55.0791 62.1438 -45.7087  255 255 255
37.5122 77.0487 -94.4275  255 255 255
-32.0056 65.6211 -58.6943  255 255 255
65.075 53.3366 -9.23827  255 255 255
-57.4194 61.9539 -46.25  255 255 255
-4.50118 69.8712 -74.4063  255 255 255
64.4088 53.6964 -11.2862  255 255 255
-83.5745 57.8447 -30.9368  255 255 255
-64.9165 60.5148 -41.3102  255 255 255
-74.0961 59.2884 -36.7967  255 255 255
68.557 81.9227 -111.525  255 255 255
28.7375 75.2256 -91.9711  255 255 255
56.6739 45.8812 14.6424  255 255 255
-55.1646 61.8315 -47.5013  255 255 255
-42.4108 63.6232 -54.1153  255 255 255
-92.0199 56.4193 -26.8771  255 255 255
-86.1752 57.1463 -29.6956  255 255 255
-82.0292 57.4649 -30.9839  255 255 255
-28.7093 65.7794 -62.3554  255 255 255
-28.7093 65.7794 -62.3553  255 255 255
69.0236 81.6247 -111.624  255 255 255
19.9191 73.3055 -87.5144  255 255 255
27.175 74.7082 -91.863  255 255 255
-41.3162 63.4904 -54.9583  255 255 255
18.353 73.014 -87.1426  255 255 255
-126.532 71.7964 -81.2789  255 255 255
-10.7332 68.1837 -71.8211  255 255 255
69.5552 81.4451 -112.415  255 255 255
-56.5265 61.294 -47.2443  255 255 255
-56.5648 61.3084 -47.2512  255 255 255
-43.5132 63.149 -54.3393  255 255 255
82.3876 83.4666 -119.258  255 255 255
-58.2823 60.73 -45.9582  255 255 255
-24.8569 65.6046 -64.5963  255 255 255
-24.8698 65.5845 -64.5482  255 255 255
-24.8569 65.6046 -64.5963  255 255 255
-83.8355 56.823 -31.5282  255 255 255
64.9212 52.4771 -10.9981  255 255 255
65.5964 51.8043 -8.8172  255 255 255
59.479 43.2789 20.9124  255 255 255
-72.1416 58.4193 -38.8902  255 255 255
-43.9477 61.9762 -52.8722  255 255 255
6.85359 70.0397 -81.1064  255 255 255
70.4074 80.5455 -113.731  255 255 255
-85.6475 56.4705 -31.577  255 255 255
65.1074 51.9367 -10.7436  255 255 255
-42.6777 62.3489 -55.2885  255 255 255
65.4713 51.5478 -9.51265  255 255 255
59.382 42.8794 21.1532  255 255 255
-56.464 60.2037 -47.5068  255 255 255
-56.4492 60.2535 -47.5914  255 255 255
-3.95719 68.0464 -76.1134  255 255 255
56.6268 44.215 15.0176  255 255 255
-4.34779 67.6605 -76.4646  255 255 255
-82.8888 56.1011 -33.5469  255 255 255
-67.7666 58.1615 -42.8311  255 255 255
-55.5746 59.7511 -48.7616  255 255 255
-6.3848 66.9334 -75.3036  255 255 255
-7.18217 66.7441 -75.1254  255 255 255
4.84389 68.6141 -81.2687  255 255 255
4.07227 68.1712 -79.9394  255 255 255
3.58939 68.2105 -80.4671  255 255 255
-34.2859 62.387 -60.3106  255 255 255
-34.2859 62.387 -60.3105  255 255 255
-86.3084 55.1677 -31.8806  255 255 255
-6.7448 66.5466 -75.6199  255 255 255
4.71932 68.2331 -81.5648  255 255 255
-56.7813 58.8453 -47.4627  255 255 255
3.67415 67.8335 -80.8477  255 255 255
56.1105 43.9186 13.098  255 255 255
-24.9009 63.5816 -66.0406  255 255 255
-59.0098 58.6901 -47.5771  255 255 255
0.131996 67.2045 -79.2168  255 255 255
4.26803 67.682 -81.5522  255 255 255
64.6938 50.0355 -9.78722  255 255 255
62.3135 51.7097 -17.7742  255 255 255
2.60818 66.9411 -81.4536  255 255 255
10.5444 68.1176 -85.49  255 255 255
87.5404 80.403 -124.216  255 255 255
-68.7052 56.7015 -42.7102  255 255 255
1.95351 66.5957 -80.6872  255 255 255
59.9045 41.328 20.4431  255 255 255
-38.2861 60.6098 -59.5793  255 255 255
7.65711 67.3793 -84.0693  255 255 255
-15.0831 63.6221 -71.0068  255 255 255
62.5021 51.2932 -17.8851  255 255 255
-3.9792 65.4939 -78.1079  255 255 255
-124.924 67.3136 -81.3305  255 255 255
-24.3057 62.2805 -66.8168  255 255 255
-16.5277 63.4758 -71.3057  255 255 255
-19.2901 62.6865 -69.1299  255 255 255
-12.5053 63.9426 -73.8115  255 255 255
2.69833 66.2136 -82.0626  255 255 255
57.1169 42.43 14.0804  255 255 255
59.7277 40.9994 19.7881  255 255 255
58.6913 52.8184 -27.2048  255 255 255
60.8448 40.2648 22.0786  255 255 255
-19.5592 62.5426 -70.3289  255 255 255
1.62833 65.404 -80.9524  255 255 255
65.1094 48.8992 -11.819  255 255 255
65.1094 48.8991 -11.8189  255 255 255
-125.603 66.4772 -82.3182  255 255 255
-42.646 58.9778 -57.909  255 255 255
-59.1557 56.2911 -48.98  255 255 255
-59.1012 56.1679 -48.5824  255 255 255
-40.1006 58.5082 -58.6416  255 255 255
-40.1006 58.5082 -58.6415  255 255 255
63.0104 38.2699 27.3598  255 255 255
-63.0172 55.4998 -46.6404  255 255 255
-62.9442 55.4414 -46.4435  255 255 255
-26.6102 60.345 -66.8429  255 255 255
-67.419 54.9054 -44.8261  255 255 255
58.3341 40.5501 16.8606  255 255 255
58.6721 40.8115 15.529  255 255 255
-86.4919 52.3356 -33.8912  255 255 255
-86.492 52.3356 -33.8914  255 255 255
-56.4846 56.2165 -51.1953  255 255 255
63.1651 37.9069 27.4293  255 255 255
59.878 39.5417 20.2945  255 255 255
-21.7994 60.6024 -70.26  255 255 255
-15.8059 61.4123 -73.5881  255 255 255
64.7843 48.3314 -14.7339  255 255 255
60.3253 39.274 20.6104  255 255 255
57.9075 51.6981 -30.1539  255 255 255
-33.0182 58.749 -64.272  255 255 255
58.131 72.1848 -111.988  255 255 255
-70.7028 53.635 -43.2812  255 255 255
-70.7028 53.635 -43.2812  255 255 255
-12.7927 61.4148 -75.3874  255 255 255
57.0982 40.8611 12.8341  255 255 255
58.6436 40.0841 16.318  255 255 255
58.6436 40.0841 16.318  255 255 255
-19.5342 60.3866 -71.8521  255 255 255
-19.534 60.4268 -71.9755  255 255 255
59.5124 39.2304 19.3484  255 255 255
-25.968 59.4754 -68.4655  255 255 255
-18.5437 60.4814 -72.5338  255 255 255
-18.5607 60.5063 -72.6073  255 255 255
-12.1728 61.483 -76.2199  255 255 255
-72.0593 53.3616 -42.7274  255 255 255
59.4458 50.4207 -26.7483  255 255 255
59.6223 50.5223 -27.1003  255 255 255
-5.44849 61.9867 -79.5766  255 255 255
-99.4652 52.6959 -39.3726  255 255 255
-99.4652 52.6959 -39.3726  255 255 255
-23.9198 59.1231 -69.2625  255 255 255
60.334 38.4445 20.9415  255 255 255
66.0032 72.3177 -117.234  255 255 255
-14.2645 60.4618 -75.4064  255 255 255
-21.5166 59.1515 -70.0882  255 255 255
-17.2607 59.8956 -73.4057  255 255 255
59.6268 38.7379 19.4433  255 255 255
-83.7051 51.3622 -36.5589  255 255 255
-18.8149 59.8008 -73.1888  255 255 255
60.7996 71.2304 -114.487  255 255 255
64.9094 35.9985 30.5909  255 255 255
18.6594 64.8341 -93.4809  255 255 255
-25.227 58.5021 -69.7461  255 255 255
56.945 70.287 -112.937  255 255 255
-86.1301 50.4196 -35.6414  255 255 255
-60.2237 53.4149 -50.0533  255 255 255
-21.4353 58.5617 -72.2344  255 255 255
-68.1893 52.3696 -45.8393  255 255 255
19.2487 63.5639 -91.2685  255 255 255
60.5362 38.0359 19.0096  255 255 255
64.4233 35.7901 28.6462  255 255 255
-82.6133 50.5163 -37.7975  255 255 255
-14.6342 59.1388 -76.2953  255 255 255
-14.6381 59.1224 -76.2226  255 255 255
-57.5328 53.4392 -52.2184  255 255 255
60.767 69.798 -115.934  255 255 255
-47.6105 54.4611 -57.3954  255 255 255
58.6012 38.5269 14.9413  255 255 255
-70.3398 51.7213 -45.7394  255 255 255
-63.6788 52.2339 -48.985  255 255 255
-63.4793 51.8965 -47.4396  255 255 255
-84.8324 49.6726 -36.7924  255 255 255
55.989 68.4421 -113.628  255 255 255
59.3429 37.8954 16.7981  255 255 255
-33.1595 55.9221 -66.4626  255 255 255
60.1112 37.52 18.3131  255 255 255
-48.1712 53.7391 -57.2404  255 255 255
62.0365 46.7286 -21.3202  255 255 255
-71.832 50.8784 -44.7744  255 255 255
-71.832 50.8783 -44.7744  255 255 255
-47.5574 53.7839 -58.5119  255 255 255
-50.0983 53.3992 -57.2263  255 255 255
60.2172 37.2907 17.9133  255 255 255
65.9507 34.0748 32.0002  255 255 255
29.9876 63.9245 -101.519  255 255 255
60.4899 67.8927 -115.98  255 255 255
-71.7427 50.57 -45.933  255 255 255
-9.64263 58.1434 -80.1036  255 255 255
56.9526 38.3962 10.6863  255 255 255
66.4985 33.5456 32.5036  255 255 255
62.8531 67.7227 -119.1  255 255 255
60.1756 36.4816 18.0281  255 255 255
29.9245 63.0759 -101.706  255 255 255
56.2908 38.3589 8.79212  255 255 255
-87.6791 47.7314 -36.8198  255 255 255
-56.6893 51.282 -54.3411  255 255 255
-56.6893 51.282 -54.3411  255 255 255
-51.5114 52.0759 -57.9626  255 255 255
59.2367 36.6768 15.3802  255 255 255
-19.1037 54.9319 -71.8674  255 255 255
57.7262 37.2656 12.0988  255 255 255
59.9105 36.1119 17.3285  255 255 255
-72.0344 49.2952 -46.0861  255 255 255
59.8193 46.2242 -28.2741  255 255 255
57.8206 36.9843 12.756  255 255 255
-71.5882 49.0331 -46.0616  255 255 255
61.2821 45.273 -25.4602  255 255 255
-2.73184 57.3515 -85.4232  255 255 255
59.9251 45.7631 -28.2222  255 255 255
-54.8735 50.6941 -55.9599  255 255 255
-48.6922 51.4006 -59.7664  255 255 255
-48.6922 51.4007 -59.7665  255 255 255
-56.0773 50.3091 -55.5218  255 255 255
30.8477 61.1282 -102.203  255 255 255
-38.2169 52.3192 -65.842  255 255 255
-17.6607 53.2667 -70.6801  255 255 255
-43.5817 51.501 -63.0147  255 255 255
-56.3546 49.7753 -55.5025  255 255 255
39.503 62.0419 -108.297  255 255 255
62.5929 33.7416 22.9799  255 255 255
62.593 33.7416 22.9799  255 255 255
-85.1335 46.6672 -40.8304  255 255 255
-30.5838 52.5748 -70.8865  255 255 255
-67.5413 47.8148 -48.1686  255 255 255
56.7615 63.6971 -117.636  255 255 255
-42.7579 50.9567 -64.0263  255 255 255
-65.5066 48.2366 -50.6879  255 255 255
61.7317 43.312 -23.4158  255 255 255
-31.4775 51.6802 -70.8391  255 255 255
62.0942 43.0416 -24.4149  255 255 255
-87.9561 45.475 -38.5665  255 255 255
60.5022 43.8245 -28.2628  255 255 255
14.0158 56.8704 -95.9477  255 255 255
55.9998 36.0568 6.80778  255 255 255
56.4073 36.0901 6.61693  255 255 255
-41.9444 49.9164 -64.7182  255 255 255
-62.5877 47.4225 -52.5899  255 255 255
-62.5877 47.4225 -52.59  255 255 255
-110.817 50.6633 -64.8511  255 255 255
-40.4507 49.8683 -65.6833  255 255 255
-40.4507 49.8683 -65.6833  255 255 255
-3.27833 54.2129 -86.3298  255 255 255
-62.1554 47.4374 -54.0394  255 255 255
-45.5436 49.1274 -63.4569  255 255 255
-55.571 47.7637 -58.2368  255 255 255
-55.5598 47.7811 -58.2827  255 255 255
-63.2951 46.8053 -53.5702  255 255 255
-63.2951 46.8053 -53.5702  255 255 255
-63.2211 46.7113 -53.1769  255 255 255
-46.5445 48.5034 -63.3577  255 255 255
30.0601 57.79 -105.578  255 255 255
57.9032 43.8704 -35.5914  255 255 255
64.1171 31.6307 24.9128  255 255 255
-77.7212 45.1095 -45.9498  255 255 255
14.6047 55.4416 -97.2079  255 255 255
-70.1813 45.7285 -50.7533  255 255 255
-59.376 46.4118 -55.7526  255 255 255
63.1496 31.6697 22.5338  255 255 255
58.5699 42.9638 -34.261  255 255 255
-50.8038 47.2942 -61.5152  255 255 255
61.8158 32.1284 19.2369  255 255 255
61.8158 32.1284 19.2369  255 255 255
-55.7409 46.6709 -58.7334  255 255 255
62.1438 32.0029 19.3171  255 255 255
61.793 31.9004 19.8459  255 255 255
-75.1455 44.5043 -47.6336  255 255 255
-42.269 47.7233 -66.5532  255 255 255
-56.5046 46.1093 -58.576  255 255 255
-56.5076 46.1407 -58.5634  255 255 255
-75.7884 43.9201 -47.2143  255 255 255
-57.594 45.7579 -58.0014  255 255 255
61.4959 31.6133 18.254  255 255 255
59.6979 32.2938 14.1833  255 255 255
62.0938 31.2193 19.7507  255 255 255
62.7115 40.1469 -26.338  255 255 255
-71.8216 43.9363 -50.2527  255 255 255
58.2812 32.6964 10.7972  255 255 255
59.1454 32.2876 13.2523  255 255 255
59.722 32.0485 14.5228  255 255 255
-53.1603 45.2987 -60.4094  255 255 255
-68.5043 43.974 -52.6936  255 255 255
61.3673 31.127 17.9402  255 255 255
-52.6049 44.7985 -59.0347  255 255 255
-55.998 44.658 -58.2999  255 255 255
-2.4372 50.4343 -89.4014  255 255 255
61.3421 39.5436 -27.2907  255 255 255
-50.8107 45.2054 -62.8861  255 255 255
-40.4463 46.3221 -68.7643  255 255 255
-40.4573 46.2368 -68.5362  255 255 255
-96.8656 41.9109 -42.0102  255 255 255
-63.3203 43.873 -55.7346  255 255 255
-64.0041 43.759 -55.4003  255 255 255
-55.6128 44.6112 -59.9411  255 255 255
-55.6374 44.6836 -60.4409  255 255 255
-86.4327 41.5347 -43.0489  255 255 255
58.2819 31.7539 10.1551  255 255 255
-60.5701 43.6894 -57.7217  255 255 255
-60.5981 43.7091 -57.659  255 255 255
-60.5981 43.7091 -57.659  255 255 255
-54.038 44.1595 -60.817  255 255 255
-51.8891 44.3686 -62.1326  255 255 255
-50.2404 44.6092 -63.3711  255 255 255
57.6923 31.9612 8.36475  255 255 255
-82.373 41.7562 -46.475  255 255 255
-79.0663 41.9589 -47.9007  255 255 255
-56.1994 43.7195 -59.4239  255 255 255
-56.2982 43.8659 -60.2658  255 255 255
-74.0635 42.0429 -50.1721  255 255 255
-73.5804 42.1115 -50.8207  255 255 255
-73.5807 42.1111 -50.8165  255 255 255
64.5927 37.9094 -23.8504  255 255 255
-49.3784 44.2019 -64.4792  255 255 255
-50.2638 44.0485 -63.9992  255 255 255
-4.23313 48.7993 -90.1646  255 255 255
-4.25333 48.8497 -90.4269  255 255 255
62.5227 29.5548 19.4284  255 255 255
-57.5947 42.9923 -59.9701  255 255 255
-56.871 42.9818 -60.4953  255 255 255
-30.7111 45.5409 -75.5704  255 255 255
-79.4349 40.9167 -48.1082  255 255 255
-61.3125 42.3878 -57.9026  255 255 255
-61.3131 42.3959 -58.0047  255 255 255
57.7941 31.1475 8.08718  255 255 255
-52.4176 43.0271 -63.5591  255 255 255
-84.9108 40.0462 -44.1875  255 255 255
62.8753 37.2395 -25.6302  255 255 255
-40.5987 44.2318 -70.457  255 255 255
-40.6374 44.2102 -70.4073  255 255 255
-3.52794 48.1421 -91.2844  255 255 255
-3.54152 48.1635 -91.3489  255 255 255
-56.6917 42.6429 -61.3043  255 255 255
-64.1313 41.7229 -56.9541  255 255 255
61.1826 29.3183 15.6327  255 255 255
61.8538 28.9428 17.6765  255 255 255
-51.6243 42.3854 -63.6477  255 255 255
-3.58248 47.4535 -91.9875  255 255 255
63.4293 36.4514 -24.7417  255 255 255
58.1433 30.4285 8.33475  255 255 255
62.4432 28.589 18.8477  255 255 255
63.8581 35.8707 -23.9443  255 255 255
-80.1496 39.4533 -48.0488  255 255 255
-93.329 38.1343 -40.6899  255 255 255
-42.4545 42.473 -69.2798  255 255 255
62.7618 27.9376 19.3451  255 255 255
-43.9101 42.7249 -70.8933  255 255 255
61.5663 28.295 16.8276  255 255 255
61.6229 28.3215 16.7485  255 255 255
-65.9006 40.3166 -56.7577  255 255 255
-62.5886 40.6398 -58.6222  255 255 255
64.2257 35.1259 -23.6808  255 255 255
60.2923 28.4007 13.7507  255 255 255
-41.3463 41.5644 -71.7695  255 255 255
-8.44566 44.8423 -91.0929  255 255 255
66.1707 25.8996 26.8219  255 255 255
-91.5458 37.314 -42.4985  255 255 255
64.3328 34.4651 -24.5162  255 255 255
60.8359 27.8125 14.3468  255 255 255
57.1861 29.1735 5.39736  255 255 255
57.2255 29.1827 5.30514  255 255 255
61.2965 27.5649 15.4355  255 255 255
-57.4699 39.6008 -62.7699  255 255 255
-69.5393 38.4527 -55.6647  255 255 255
65.4968 25.8154 24.4136  255 255 255
-72.2187 38.1701 -54.5184  255 255 255
64.8646 33.5984 -22.9414  255 255 255
59.054 35.6906 -37.4635  255 255 255
61.4009 26.9913 15.4175  255 255 255
-56.7406 38.9812 -62.9476  255 255 255
-54.9897 39.3216 -64.955  255 255 255
-6.55495 43.7094 -92.897  255 255 255
-67.9534 38.0236 -57.2449  255 255 255
63.7189 33.5488 -26.1235  255 255 255
-69.2026 37.8319 -56.1672  255 255 255
-34.126 40.8931 -77.4271  255 255 255
-67.5833 37.8597 -57.4278  255 255 255
-58.5282 38.4229 -62.1996  255 255 255
-40.8058 39.8585 -74.1264  255 255 255
-40.8011 39.8563 -74.1497  255 255 255
58.5537 27.4799 7.54738  255 255 255
58.8071 27.4671 7.80593  255 255 255
58.3417 27.4321 7.13854  255 255 255
58.4399 27.4713 7.05723  255 255 255
-59.5784 37.6529 -62.1024  255 255 255
-54.5245 38.1741 -65.5788  255 255 255
-37.3282 39.755 -76.0337  255 255 255
-28.2811 40.3632 -81.0406  255 255 255
56.9532 27.58 4.23891  255 255 255
-27.5999 39.9769 -82.191  255 255 255
63.2139 32.3572 -28.1687  255 255 255
-89.8099 34.9842 -46.3221  255 255 255
60.9312 25.7859 12.5582  255 255 255
63.0954 24.9819 17.9315  255 255 255
-90.0526 34.7017 -46.3005  255 255 255
58.6036 26.5761 6.80848  255 255 255
58.3503 26.4745 7.07349  255 255 255
24.4386 40.6549 -88.9127  255 255 255
-85.5859 34.3329 -46.2138  255 255 255
-33.3613 38.848 -79.4942  255 255 255
34.4094 40.8256 -89.9711  255 255 255
58.0629 26.1424 6.41191  255 255 255
66.7139 23.3961 26.1175  255 255 255
27.1968 40.1329 -89.2988  255 255 255
-36.7329 37.8644 -77.4982  255 255 255
-164.85 42.2042 -94.1542  255 255 255
57.1377 26.1031 4.62901  255 255 255
56.5823 26.8511 -0.670553  255 255 255
59.746 25.7577 6.88747  255 255 255
59.1818 25.5808 7.92795  255 255 255
-92.6899 33.3917 -45.8506  255 255 255
56.1233 33.5527 -47.4737  255 255 255
57.7149 25.6836 5.47368  255 255 255
63.7841 24.1629 16.8133  255 255 255
-35.9918 37.1938 -77.5284  255 255 255
59.6836 25.1561 8.73252  255 255 255
-81.4025 33.8202 -52.4828  255 255 255
-61.1494 35.1099 -63.4823  255 255 255
59.2453 25.1888 8.01551  255 255 255
63.0741 23.8244 17.4885  255 255 255
-68.5716 34.4506 -59.2835  255 255 255
-88.2566 32.9601 -48.9256  255 255 255
-85.2448 32.705 -48.0824  255 255 255
-71.2037 34.0066 -58.6863  255 255 255
-57.0052 34.893 -66.8384  255 255 255
-56.9171 34.7884 -66.3082  255 255 255
-57.0052 34.893 -66.8384  255 255 255
-68.7631 34.0146 -60.2583  255 255 255
-85.2394 32.8304 -50.9783  255 255 255
-67.1225 33.98 -61.1107  255 255 255
63.5197 23.1238 18.1985  255 255 255
66.39 22.2552 25.0833  255 255 255
-79.5706 33.6003 -58.2447  255 255 255
-80.0293 33.3892 -58.5024  255 255 255
26.6414 36.8128 -84.7701  255 255 255
59.4551 24.122 8.13728  255 255 255
-59.2081 34.0668 -66.5153  255 255 255
58.6135 24.2013 6.07148  255 255 255
58.6109 24.208 6.05953  255 255 255
-80.2161 32.957 -58.2037  255 255 255
60.388 30.1153 -36.9227  255 255 255
-88.1514 31.742 -49.9555  255 255 255
-93.6485 31.2496 -46.3822  255 255 255
-87.7355 31.5524 -50.1638  255 255 255
65.5922 21.7202 22.4367  255 255 255
69.029 20.6474 30.475  255 255 255
-85.1925 31.4901 -51.8675  255 255 255
-79.8515 32.3513 -59.0281  255 255 255
-3.64445 35.093 -82.858  255 255 255
64.6301 28.2526 -26.5997  255 255 255
58.5732 23.5633 5.1475  255 255 255
-86.0684 30.9203 -51.1098  255 255 255
-86.1212 30.9607 -51.39  255 255 255
5.28689 33.8592 -81.1657  255 255 255
55.5935 23.9787 -2.193  255 255 255
-41.1464 33.3638 -78.6647  255 255 255
-64.9936 31.3711 -62.486  255 255 255
-43.7213 32.6949 -76.9261  255 255 255
-43.6991 32.6839 -76.9292  255 255 255
50.8172 33.5737 -80.3964  255 255 255
-71.7561 30.6212 -59.4533  255 255 255
58.7394 22.4908 5.22809  255 255 255
53.5123 33.1258 -79.1983  255 255 255
-93.5152 29.3259 -48.479  255 255 255
58.4793 28.5841 -44.0539  255 255 255
-43.6923 32.2427 -77.6315  255 255 255
57.804 22.4108 1.48769  255 255 255
-89.9736 28.9619 -50.992  255 255 255
-45.4231 31.6637 -78.5385  255 255 255
55.6208 22.6145 -2.83285  255 255 255
57.7217 21.942 2.80644  255 255 255
57.735 21.9484 2.78599  255 255 255
66.7928 19.5004 24.2595  255 255 255
-79.2689 29.9033 -63.0775  255 255 255
56.942 21.8707 0.514038  255 255 255
61.824 20.623 12.0133  255 255 255
60.5129 20.782 8.92603  255 255 255
-86.9631 28.3304 -53.5566  255 255 255
63.494 19.8102 15.09  255 255 255
-62.5686 31.7216 -91.0908  255 255 255
-56.8751 27.0486 -54.652  255 255 255
55.4833 30.3509 -75.0447  255 255 255
-32.3125 29.6722 -74.9742  255 255 255
55.8612 21.7323 -3.81025  255 255 255
61.3454 20.1277 10.1333  255 255 255
61.2531 20.1046 10.2337  255 255 255
66.6739 18.5666 22.6724  255 255 255
6.93018 29.247 -75.1619  255 255 255
3.32559 29.2304 -75.2396  255 255 255
