ply
format ascii 1.0
element vertex 1263
property float x
property float y
property float z
property uchar red
property uchar green
property uchar blue
end_header
-64.6139 10.5739 77.9653  255 255 255
-64.5778 9.91892 77.9145  255 255 255
-64.697 11.8229 77.9319  255 255 255
-64.6573 10.803 77.9581  255 255 255
-64.6433 9.81562 77.9673  255 255 255
-64.6538 9.84997 77.9626  255 255 255
-64.7673 10.7548 77.9792  255 255 255
-64.8166 10.9251 77.9906  255 255 255
49.6157 55.2247 -3.86112  255 255 255
52.0338 26.7848 -4.03514  255 255 255
49.3839 37.4374 -3.44079  255 255 255
49.3082 27.8117 -3.15418  255 255 255
49.3912 14.1082 -2.03258  255 255 255
49.9322 7.82551 -1.96804  255 255 255
44.2117 11.1195 -0.0098893  255 255 255
39.6668 53.2756 -1.19348  255 255 255
49.0534 -17.3801 -0.817975  255 255 255
42.6966 24.0565 -1.07558  255 255 255
48.0765 -35.7716 1.59207  255 255 255
39.0186 37.4411 -1.29299  255 255 255
38.6549 22.6217 0.48967  255 255 255
44.3806 -9.55991 -0.805323  255 255 255
43.339 -26.8822 2.26586  255 255 255
40.2451 -2.54074 1.2657  255 255 255
40.0517 -22.0965 2.09553  255 255 255
37.0326 -15.6322 2.49966  255 255 255
30.9141 48.1539 -0.55205  255 255 255
36.5584 -7.2627 0.1749  255 255 255
38.8053 5.55497 -4.39337  255 255 255
36.0185 -33.5562 3.31433  255 255 255
38.4533 9.73366 -5.11728  255 255 255
29.3437 40.095 -0.21724  255 255 255
37.7172 -21.1726 -0.886392  255 255 255
37.3175 26.5574 -7.34017  255 255 255
37.3591 -1.51615 -4.47534  255 255 255
31.6439 -6.47818 1.70128  255 255 255
31.8589 -5.96756 1.34191  255 255 255
37.5559 0.451983 -5.96095  255 255 255
105.455 42.7734 -81.5869  255 255 255
102.793 40.951 -80.1813  255 255 255
15.9949 44.6553 6.10855  255 255 255
97.0709 2.44483 -77.9521  255 255 255
95.2351 -17.2156 -74.16  255 255 255
88.916 -5.835 -69.2682  255 255 255
25.2268 -32.9977 0.327318  255 255 255
86.6606 5.13144 -72.8665  255 255 255
86.6606 5.13144 -72.8665  255 255 255
78.1275 -1.71211 -65.2747  255 255 255
82.6704 31.7316 -75.7861  255 255 255
82.3967 9.35005 -73.3585  255 255 255
78.8642 40.7807 -73.3366  255 255 255
76.7394 41.4108 -71.7343  255 255 255
75.4997 41.1767 -70.321  255 255 255
79.077 -4.30063 -72.3529  255 255 255
2.92684 44.4867 10.0304  255 255 255
4.08273 18.2014 11.057  255 255 255
73.6745 -11.6851 -68.683  255 255 255
2.33333 17.7126 11.4875  255 255 255
4.64822 -11.2368 12.3986  255 255 255
0.26731 44.7484 10.3886  255 255 255
4.0657 -12.0779 11.8518  255 255 255
48.0357 9.41012 -61.3681  255 255 255
47.3373 2.29314 -60.8503  255 255 255
40.2607 53.3291 -58.1618  255 255 255
-10.763 42.2675 13.4838  255 255 255
43.8875 53.9531 -63.253  255 255 255
44.3994 52.9176 -64.4818  255 255 255
-9.69863 40.8198 11.7119  255 255 255
45.4574 52.7578 -66.9595  255 255 255
44.9069 -17.4623 -57.5199  255 255 255
-10.999 41.1863 12.6321  255 255 255
-11.9355 16.2953 15.7891  255 255 255
-11.6616 40.3714 11.6981  255 255 255
40.2438 -3.86576 -57.1143  255 255 255
38.2304 54.1844 -63.1041  255 255 255
-12.2608 15.5217 14.7836  255 255 255
-13.9392 40.5494 13.367  255 255 255
44.9528 -47.7562 -61.143  255 255 255
-14.2893 40.591 12.5243  255 255 255
43.3286 -52.6502 -60.8975  255 255 255
-16.3826 18.724 17.2052  255 255 255
-17.4633 17.589 17.4951  255 255 255
-19.7329 40.3956 14.1358  255 255 255
-21.614 18.8404 18.6799  255 255 255
-22.6841 19.2182 19.0449  255 255 255
20.9738 9.38759 -54.8927  255 255 255
21.5166 -2.90413 -54.0768  255 255 255
20.7824 0.0914893 -54.3268  255 255 255
-22.6966 -9.3278 20.2488  255 255 255
-25.1244 16.586 19.0745  255 255 255
15.2309 54.8956 -58.7276  255 255 255
17.5949 -43.5763 -49.6171  255 255 255
11.0628 57.2167 -56.2812  255 255 255
-28.2242 21.4684 20.2616  255 255 255
-28.2242 21.4684 20.2616  255 255 255
12.8341 -7.51467 -51.8729  255 255 255
-28.3201 21.6099 20.1798  255 255 255
-28.8686 22.2006 20.0568  255 255 255
-28.8686 22.2006 20.0568  255 255 255
-28.0798 15.7814 19.4923  255 255 255
-28.9367 22.2314 19.8247  255 255 255
8.70526 58.7123 -56.9734  255 255 255
-28.1062 15.8866 18.907  255 255 255
-29.0995 22.3327 19.7729  255 255 255
-29.0995 22.3327 19.7729  255 255 255
-29.1721 17.6018 20.5968  255 255 255
-29.3347 22.1905 19.9521  255 255 255
-29.3347 22.1905 19.9521  255 255 255
7.95339 57.2094 -56.8832  255 255 255
7.00111 55.3507 -54.8243  255 255 255
7.4858 58.0409 -56.7126  255 255 255
-29.8963 22.017 20.0376  255 255 255
-30.3908 22.8112 19.9433  255 255 255
-30.6419 22.432 20.2739  255 255 255
-31.1113 22.2516 20.2026  255 255 255
-31.1113 22.2516 20.2026  255 255 255
-29.2954 -8.79434 21.1438  255 255 255
-29.3456 -9.60121 21.3689  255 255 255
-29.3456 -9.60121 21.3689  255 255 255
-29.7568 -8.60035 21.792  255 255 255
-31.721 22.198 20.7416  255 255 255
-32.5994 21.235 22.1381  255 255 255
2.34919 56.2925 -53.8435  255 255 255
2.34919 56.2925 -53.8435  255 255 255
-32.791 22.3496 20.8949  255 255 255
-32.9796 22.4589 20.4409  255 255 255
-31.426 -8.10015 21.8714  255 255 255
-33.3781 22.6542 20.5735  255 255 255
-31.6494 -10.5493 21.5361  255 255 255
-34.0006 18.517 22.0753  255 255 255
-34.3202 18.1204 22.5474  255 255 255
-33.7463 22.5352 20.5157  255 255 255
-31.7037 -10.9754 21.1041  255 255 255
-32.0007 -10.5276 21.2706  255 255 255
-34.7992 19.4198 22.1811  255 255 255
-34.8833 18.5625 21.9213  255 255 255
-34.1026 -8.34675 24.1596  255 255 255
-34.7818 17.3277 21.5964  255 255 255
-35.2826 22.6928 21.1199  255 255 255
-35.4669 22.2795 21.5464  255 255 255
-36.0868 22.4111 21.8497  255 255 255
-33.468 -12.5598 20.4762  255 255 255
-34.3613 -9.39641 21.8722  255 255 255
-34.5856 -9.14501 22.1246  255 255 255
-34.2762 -5.96591 20.6707  255 255 255
-37.9353 20.1875 23.733  255 255 255
-4.29438 -16.6696 -48.7293  255 255 255
-35.3333 -9.8062 21.8104  255 255 255
-35.3284 -6.42035 20.7073  255 255 255
-1.88187 -51.7887 -50.6915  255 255 255
-38.7054 18.7562 24.0171  255 255 255
-35.8212 -12.1899 21.2541  255 255 255
-36.4617 -9.45522 22.2523  255 255 255
-40.6517 19.7613 24.4573  255 255 255
-14.0931 38.1711 -45.5368  255 255 255
-40.9003 19.1684 24.6256  255 255 255
-11.582 -8.36555 -44.858  255 255 255
-41.1446 19.6031 24.5318  255 255 255
-41.523 18.9363 24.799  255 255 255
-41.5847 19.4698 24.8633  255 255 255
-40.079 -8.23293 25.3454  255 255 255
-43.6658 17.9888 24.8625  255 255 255
-45.3562 18.7821 25.6043  255 255 255
-64.0121 18.0712 77.6268  255 255 255
-64.0595 18.2019 77.6154  255 255 255
-64.0931 17.5538 77.6517  255 255 255
-64.0716 17.2569 77.6325  255 255 255
-63.877 12.7436 77.726  255 255 255
-64.0114 15.0295 77.6846  255 255 255
-64.1095 16.5355 77.6861  255 255 255
-64.1584 17.5059 77.6304  255 255 255
-63.9068 12.0094 77.7649  255 255 255
-63.9936 13.4101 77.7515  255 255 255
-63.9308 11.9067 77.7676  255 255 255
-64.1858 17.0203 77.6895  255 255 255
-64.1974 16.789 77.694  255 255 255
-64.074 14.1431 77.7225  255 255 255
-63.9917 11.8781 77.7953  255 255 255
-64.2537 17.5063 77.6677  255 255 255
-64.2605 17.3904 77.6971  255 255 255
-64.2048 16.3348 77.7099  255 255 255
-64.0083 11.9664 77.7835  255 255 255
-63.9456 10.6821 77.7994  255 255 255
-64.1857 15.378 77.7533  255 255 255
-64.0597 12.8096 77.7693  255 255 255
-64.0478 12.4836 77.789  255 255 255
-64.1239 14.0895 77.739  255 255 255
-64.2771 17.1684 77.6898  255 255 255
-64.1919 15.294 77.7446  255 255 255
-64.1919 15.294 77.7446  255 255 255
-64.1982 15.6149 77.6825  255 255 255
-63.9635 9.95441 77.834  255 255 255
-64.2308 15.703 77.7187  255 255 255
-64.2263 15.3408 77.7567  255 255 255
-64.1746 14.4633 77.7309  255 255 255
-64.2365 15.3841 77.75  255 255 255
-64.154 13.1904 77.7977  255 255 255
-64.3191 16.8439 77.6934  255 255 255
-64.2699 15.6317 77.7355  255 255 255
-64.0374 10.4611 77.8287  255 255 255
-64.0374 10.4611 77.8287  255 255 255
-64.3932 17.7276 77.7353  255 255 255
-64.3145 16.3556 77.7148  255 255 255
-64.2861 15.7708 77.7369  255 255 255
-64.1397 12.4759 77.8108  255 255 255
-64.0799 10.5837 77.8337  255 255 255
-64.4216 18.0069 77.6807  255 255 255
-64.2663 14.5633 77.7493  255 255 255
-64.3221 15.5575 77.7497  255 255 255
-64.3221 15.5575 77.7497  255 255 255
-64.0812 10.2485 77.835  255 255 255
-64.3293 15.3566 77.7602  255 255 255
-64.3474 15.7094 77.7407  255 255 255
-64.2256 13.0017 77.818  255 255 255
-64.4522 17.419 77.7344  255 255 255
-64.4522 17.419 77.7344  255 255 255
-64.354 15.4775 77.7434  255 255 255
-64.3257 14.5707 77.773  255 255 255
-64.2947 13.811 77.7958  255 255 255
-64.4385 16.8608 77.7336  255 255 255
-64.3092 14.0606 77.7832  255 255 255
-64.3186 14.0091 77.8007  255 255 255
-64.3581 14.6049 77.7641  255 255 255
-64.3428 14.3177 77.7681  255 255 255
-64.4866 17.1003 77.7355  255 255 255
-64.3531 14.3832 77.7617  255 255 255
-64.2982 12.907 77.8322  255 255 255
-64.2982 12.907 77.8322  255 255 255
-64.2524 11.8354 77.826  255 255 255
-64.2872 12.3044 77.8478  255 255 255
-64.2956 12.1773 77.8572  255 255 255
-64.2956 12.1773 77.8572  255 255 255
-64.4015 14.5804 77.7592  255 255 255
-64.3769 13.9005 77.7856  255 255 255
-64.3655 13.6364 77.791  255 255 255
-64.3655 13.6364 77.791  255 255 255
-64.3665 13.4949 77.7966  255 255 255
-64.2135 10.0196 77.8777  255 255 255
-64.523 16.6807 77.7633  255 255 255
-64.2828 11.1535 77.8613  255 255 255
-64.2458 10.0572 77.8915  255 255 255
-64.4082 13.6436 77.7969  255 255 255
-64.3172 11.2067 77.8948  255 255 255
-64.2909 10.8204 77.8796  255 255 255
-64.4954 15.1418 77.8174  255 255 255
-64.6202 17.3943 77.7553  255 255 255
-64.3493 11.1293 77.9016  255 255 255
-64.3284 10.6903 77.8986  255 255 255
-64.3896 11.4652 77.9198  255 255 255
-64.3577 10.7263 77.8961  255 255 255
-64.3622 10.3879 77.9357  255 255 255
-64.3622 10.3879 77.9357  255 255 255
-64.4308 11.6557 77.8983  255 255 255
-64.5509 13.828 77.8543  255 255 255
-64.4112 9.64366 77.9354  255 255 255
-64.4693 10.5184 77.9454  255 255 255
-64.4693 10.5184 77.9454  255 255 255
-64.5129 10.7043 77.9259  255 255 255
-64.5467 9.97555 77.9522  255 255 255
-64.6022 11.0132 77.9676  255 255 255
-64.6022 11.0132 77.9676  255 255 255
-64.7245 12.9388 77.9123  255 255 255
-64.7387 12.8692 77.9243  255 255 255
-64.7387 12.8692 77.9243  255 255 255
-64.6292 10.0702 77.9711  255 255 255
-64.6434 10.3507 77.9696  255 255 255
-64.7773 12.8721 77.9125  255 255 255
-64.695 10.754 77.9365  255 255 255
-64.8074 10.8847 77.9776  255 255 255
-64.806 10.7902 77.985  255 255 255
-64.873 10.8403 78.0009  255 255 255
-64.8198 9.60497 78.0022  255 255 255
-65.0039 7.25013 78.2312  255 255 255
-65.2736 7.88089 78.3242  255 255 255
-65.263 7.66481 78.3121  255 255 255
-65.4792 6.18384 78.4431  255 255 255
-65.5321 7.03931 78.4157  255 255 255
-66.6454 14.1786 78.4995  255 255 255
-66.6496 6.73944 78.7255  255 255 255
-66.9174 6.92661 78.7549  255 255 255
-67.7495 15.536 78.8129  255 255 255
-67.5941 9.527 78.8899  255 255 255
-68.9232 11.506 83.3296  255 255 255
47.2275 30.3366 -1.71326  255 255 255
48.1125 27.8165 -2.61379  255 255 255
45.3964 27.0192 -1.25638  255 255 255
49.4632 -16.858 -1.09581  255 255 255
44.9453 8.79075 -1.67311  255 255 255
42.0396 19.3862 -0.607948  255 255 255
46.2561 -7.85706 -1.09626  255 255 255
38.8609 16.13 1.02184  255 255 255
39.5105 11.7372 -1.12698  255 255 255
23.7232 15.1476 4.95248  255 255 255
34.8773 38.935 -10.6102  255 255 255
18.7031 14.3713 4.8038  255 255 255
95.1505 -10.8195 -75.6225  255 255 255
2.90377 17.3497 11.6963  255 255 255
2.90377 17.3497 11.6963  255 255 255
-0.0398884 44.5169 11.6715  255 255 255
-3.44747 43.6079 11.2151  255 255 255
-5.49234 42.7215 12.4694  255 255 255
52.5209 -60.5903 -64.8214  255 255 255
-11.9853 16.007 15.6977  255 255 255
44.8875 -61.6114 -60.3213  255 255 255
31.3732 49.0141 -56.144  255 255 255
30.372 52.9476 -56.5622  255 255 255
36.2333 -43.1557 -54.6321  255 255 255
13.1111 41.1837 -52.9476  255 255 255
15.919 -3.24273 -54.2286  255 255 255
13.2037 55.7816 -58.0726  255 255 255
12.7036 56.0218 -58.003  255 255 255
13.9169 11.4128 -54.3466  255 255 255
-27.6696 18.3076 20.3785  255 255 255
-27.9269 22.3536 19.4466  255 255 255
-29.1818 20.4111 20.7383  255 255 255
-29.908 22.1688 20.2021  255 255 255
-29.908 22.1688 20.2021  255 255 255
-29.4863 22.8152 18.9198  255 255 255
-30.5883 23.0113 19.0836  255 255 255
-31.0454 22.4592 19.652  255 255 255
-31.4091 22.4645 19.6805  255 255 255
-31.0222 -7.9807 21.4598  255 255 255
-33.1359 23.1172 20.9727  255 255 255
-31.2149 14.558 18.0099  255 255 255
-31.2149 14.558 18.0099  255 255 255
-31.3395 -11.1744 21.2566  255 255 255
-31.3395 -11.1744 21.2566  255 255 255
-33.8492 22.3487 20.8719  255 255 255
-34.5688 19.9225 21.7603  255 255 255
-35.1987 18.1822 22.2066  255 255 255
-35.6413 22.68 21.4588  255 255 255
-35.9299 -8.24476 22.366  255 255 255
-35.9299 -8.24476 22.366  255 255 255
-38.3754 17.8233 22.977  255 255 255
-38.593 17.8173 23.4779  255 255 255
-36.0944 -10.6235 22.0006  255 255 255
-36.0979 -10.63 22.0089  255 255 255
-36.9557 -11.4119 22.0815  255 255 255
-63.9126 18.1491 77.5848  255 255 255
-63.9737 17.5367 77.6242  255 255 255
-63.9737 17.5367 77.6242  255 255 255
-64.0452 16.1595 77.6602  255 255 255
-63.9749 14.5549 77.6958  255 255 255
-64.0065 14.9777 77.7059  255 255 255
-63.9756 14.2653 77.7065  255 255 255
-64.1836 17.4541 77.6726  255 255 255
-64.1342 16.0769 77.6787  255 255 255
-64.2361 17.5407 77.7116  255 255 255
-64.1031 15.1309 77.7017  255 255 255
-64.1031 15.1309 77.7017  255 255 255
-64.1516 14.894 77.7159  255 255 255
-64.2818 17.2756 77.7068  255 255 255
-64.3381 18.4546 77.6564  255 255 255
-64.25 16.2177 77.7235  255 255 255
-64.2224 15.5007 77.7397  255 255 255
-64.311 17.395 77.6922  255 255 255
-64.3095 17.0409 77.7011  255 255 255
-64.3329 17.278 77.7023  255 255 255
-64.3132 16.9436 77.6925  255 255 255
-64.2694 15.8284 77.7409  255 255 255
-64.3181 16.7323 77.6977  255 255 255
-64.319 16.4163 77.7001  255 255 255
-64.2808 15.354 77.7643  255 255 255
-64.2808 15.354 77.7643  255 255 255
-64.141 12.3888 77.808  255 255 255
-64.3562 16.9699 77.6892  255 255 255
-64.0656 10.5121 77.8256  255 255 255
-64.2861 15.1264 77.7725  255 255 255
-64.1561 12.3203 77.7991  255 255 255
-64.4429 18.087 77.663  255 255 255
-64.3519 15.9167 77.7228  255 255 255
-64.2746 13.9352 77.7839  255 255 255
-64.3665 15.8393 77.741  255 255 255
-64.1546 11.1051 77.8436  255 255 255
-64.3411 14.8675 77.7684  255 255 255
-64.302 13.3142 77.8456  255 255 255
-64.2639 12.7346 77.8141  255 255 255
-64.3793 15.1232 77.7646  255 255 255
-64.3476 14.4549 77.7903  255 255 255
-64.3476 14.4549 77.7903  255 255 255
-64.1773 10.2478 77.8832  255 255 255
-64.2909 12.4429 77.8361  255 255 255
-64.3662 14.113 77.7869  255 255 255
-64.2658 11.4356 77.8662  255 255 255
-64.363 13.7708 77.7875  255 255 255
-64.3491 13.3419 77.8108  255 255 255
-64.328 12.9517 77.8171  255 255 255
-64.4983 16.7302 77.6928  255 255 255
-64.6033 17.1019 77.7924  255 255 255
-64.3851 12.2779 77.8675  255 255 255
-64.3851 12.2779 77.8675  255 255 255
-64.4791 14.1074 77.8419  255 255 255
-64.4791 14.1074 77.8419  255 255 255
-64.3574 10.1825 77.9347  255 255 255
-64.3967 11.1085 77.9016  255 255 255
-64.3448 9.58154 77.9484  255 255 255
-64.4147 10.7318 77.8944  255 255 255
-64.5741 14.136 77.8405  255 255 255
-64.6821 16.3471 77.7897  255 255 255
-64.6821 16.3471 77.7897  255 255 255
-64.7261 16.3145 77.7692  255 255 255
-64.6837 12.9053 77.9207  255 255 255
-64.6928 12.8452 77.9234  255 255 255
-64.6491 11.8133 77.9301  255 255 255
-64.6025 10.5219 77.9624  255 255 255
-64.6637 10.5847 77.9554  255 255 255
-64.8378 12.9919 77.9426  255 255 255
-64.8084 7.21446 78.2183  255 255 255
-65.0329 5.53431 78.2904  255 255 255
-65.1326 6.87524 78.3207  255 255 255
-65.7272 6.78724 78.4728  255 255 255
-66.071 14.0837 78.3247  255 255 255
-65.9926 7.22406 78.5242  255 255 255
-66.311 11.4996 78.4622  255 255 255
-66.7029 10.2509 78.5911  255 255 255
-67.0411 10.3915 78.6874  255 255 255
-67.8715 12.6749 78.8884  255 255 255
-67.8463 9.22515 78.9281  255 255 255
-68.8541 13.683 83.1979  255 255 255
-68.8541 13.683 83.1979  255 255 255
-68.9085 12.5386 83.2606  255 255 255
-68.9085 12.5386 83.2606  255 255 255
-69.0303 10.7331 83.3851  255 255 255
44.4572 2.37453 0.135612  255 255 255
37.9872 15.8301 2.32866  255 255 255
42.0475 5.67566 -0.417831  255 255 255
38.2425 -40.1689 4.59368  255 255 255
27.0529 43.7985 2.49884  255 255 255
36.1982 -41.2447 3.40654  255 255 255
38.6941 3.54837 -5.84025  255 255 255
-4.33759 43.0383 11.3565  255 255 255
36.5208 -17.2686 -55.3553  255 255 255
20.5551 -2.08403 -53.1684  255 255 255
12.5607 57.3238 -57.9651  255 255 255
-29.0783 22.6464 19.6212  255 255 255
-29.3911 22.4257 19.6263  255 255 255
-31.9717 22.5672 20.4248  255 255 255
-32.981 17.3805 21.2488  255 255 255
-30.9574 -11.4242 20.9788  255 255 255
-31.4838 -8.47102 21.1443  255 255 255
-33.016 -10.0724 21.8945  255 255 255
-35.7355 18.497 22.8663  255 255 255
-36.2042 22.4714 21.3476  255 255 255
-35.2571 -9.93759 23.4248  255 255 255
-34.3563 -12.4287 20.6535  255 255 255
-3.74405 -50.1836 -50.6253  255 255 255
-64.0578 18.4106 77.6023  255 255 255
-63.8545 14.0999 77.673  255 255 255
-64.0724 16.1018 77.6858  255 255 255
-64.2467 16.1087 77.713  255 255 255
-64.1909 14.5996 77.7226  255 255 255
-64.3422 17.1555 77.6942  255 255 255
-64.2703 15.4429 77.7512  255 255 255
-64.021 10.2543 77.8246  255 255 255
-64.154 12.6726 77.8109  255 255 255
-64.3082 16.0663 77.708  255 255 255
-64.4276 17.3423 77.7489  255 255 255
-64.4276 17.3423 77.7489  255 255 255
-64.2166 12.4527 77.8511  255 255 255
-64.4517 17.1883 77.7324  255 255 255
-64.3018 13.7536 77.8036  255 255 255
-64.2571 12.5108 77.826  255 255 255
-64.2839 12.836 77.8091  255 255 255
-64.4068 14.76 77.778  255 255 255
-64.3596 13.564 77.8002  255 255 255
-64.1895 9.69862 77.8765  255 255 255
-64.3255 12.2281 77.8723  255 255 255
-64.5593 17.2387 77.7531  255 255 255
-64.5593 17.2387 77.7531  255 255 255
-64.3564 12.6504 77.8271  255 255 255
-64.38 12.9845 77.793  255 255 255
-64.6073 17.3025 77.7795  255 255 255
-64.3928 12.1808 77.8581  255 255 255
-64.621 16.5583 77.8009  255 255 255
-64.3591 10.2971 77.9237  255 255 255
-64.3274 9.0007 77.9118  255 255 255
-64.5468 13.0133 77.84  255 255 255
-64.5135 11.7819 77.8746  255 255 255
-64.5896 11.1854 77.9428  255 255 255
-64.6876 12.9926 77.8854  255 255 255
-64.6876 12.9926 77.8854  255 255 255
-64.5941 9.72839 77.9604  255 255 255
-64.6136 5.24997 78.2846  255 255 255
-65.3875 18.892 78.1439  255 255 255
-65.187 6.82893 78.3095  255 255 255
-65.3298 9.83059 78.2964  255 255 255
-65.4872 10.1848 78.3464  255 255 255
-65.6727 7.12529 78.4257  255 255 255
-65.6735 6.99185 78.4617  255 255 255
-65.8935 12.9119 78.3064  255 255 255
-65.8213 7.20106 78.4789  255 255 255
-65.8574 6.89941 78.519  255 255 255
-66.1325 12.1482 78.4095  255 255 255
-66.6009 10.9109 78.5526  255 255 255
-66.7179 13.0469 78.5132  255 255 255
-66.8155 9.54914 78.7014  255 255 255
-66.8143 9.43977 78.6857  255 255 255
-67.685 14.8366 78.7987  255 255 255
-67.8223 6.23087 79.0722  255 255 255
48.7292 -6.31565 -1.55851  255 255 255
44.5979 -26.0497 1.68004  255 255 255
26.3752 39.2874 -1.06896  255 255 255
99.8062 2.80175 -78.6285  255 255 255
52.9037 39.5166 -65.0467  255 255 255
52.1884 33.834 -65.8337  255 255 255
47.75 40.2072 -61.1215  255 255 255
46.1634 -41.0681 -57.236  255 255 255
28.9174 -11.3792 -51.9642  255 255 255
-30.3745 22.4829 19.9621  255 255 255
-0.504301 0.2209 -46.447  255 255 255
-36.0697 -12.7681 20.6322  255 255 255
-64.052 17.3246 77.633  255 255 255
-63.9344 14.349 77.7071  255 255 255
-64.1089 17.4872 77.6342  255 255 255
-64.1172 17.0787 77.64  255 255 255
-64.2119 17.115 77.6923  255 255 255
-64.2119 17.115 77.6923  255 255 255
-64.2819 14.6256 77.7487  255 255 255
-64.29 14.1799 77.7808  255 255 255
-64.4074 14.97 77.7638  255 255 255
-64.3128 12.1261 77.9028  255 255 255
-64.2622 10.7456 77.9004  255 255 255
-64.4375 14.3349 77.786  255 255 255
-64.4203 13.8109 77.7784  255 255 255
-64.2523 9.28657 77.9062  255 255 255
-64.6102 16.405 77.7864  255 255 255
-64.5156 11.1429 77.9294  255 255 255
-64.5574 11.072 77.9551  255 255 255
-64.6599 12.9242 77.9447  255 255 255
-64.7646 10.934 78.029  255 255 255
-65.0754 5.7832 78.3705  255 255 255
-65.905 14.0457 78.296  255 255 255
-65.6708 7.33275 78.4799  255 255 255
-66.3052 19.3703 78.385  255 255 255
-66.1191 12.0581 78.3664  255 255 255
-66.2233 13.3253 78.3753  255 255 255
-66.0942 8.6506 78.4916  255 255 255
-66.4368 14.0574 78.4761  255 255 255
-66.4572 14.5047 78.4154  255 255 255
-66.3792 11.4808 78.4622  255 255 255
-66.4854 11.381 78.5008  255 255 255
-66.56 12.2396 78.5081  255 255 255
-66.6486 12.8706 78.5151  255 255 255
-66.4961 7.48423 78.6332  255 255 255
-66.8406 7.50846 78.7153  255 255 255
-67.521 10.8623 78.8505  255 255 255
-67.6238 13.2236 78.7944  255 255 255
-67.5324 9.50658 78.8973  255 255 255
-67.8143 16.751 78.8295  255 255 255
-67.6005 9.40928 78.8979  255 255 255
-67.7779 8.14297 78.9488  255 255 255
-67.7519 6.8492 78.9914  255 255 255
44.196 -11.7343 0.498982  255 255 255
103.438 41.9503 -80.5833  255 255 255
45.9237 54.3884 -64.8306  255 255 255
46.3377 -0.898696 -59.7548  255 255 255
43.5343 -1.48519 -56.0593  255 255 255
33.9093 51.6869 -58.2363  255 255 255
-35.5173 21.7039 21.8442  255 255 255
-33.3685 -11.4785 21.6389  255 255 255
-33.1366 -12.6589 20.4229  255 255 255
-64.0852 18.6542 77.6126  255 255 255
-64.047 14.2715 77.7165  255 255 255
-64.0571 13.9279 77.7335  255 255 255
-64.2325 16.7593 77.6907  255 255 255
-64.2486 16.403 77.7118  255 255 255
-64.2604 16.3989 77.744  255 255 255
-64.236 15.9209 77.6793  255 255 255
-64.1257 10.5222 77.8681  255 255 255
-64.116 10.4002 77.848  255 255 255
-64.2545 12.9397 77.8414  255 255 255
-64.2751 13.0901 77.8447  255 255 255
-64.2205 10.3436 77.8701  255 255 255
-64.472 12.0793 77.9017  255 255 255
-64.4443 10.2305 77.9318  255 255 255
-64.5878 8.45209 78.1751  255 255 255
-64.9753 17.3588 77.9481  255 255 255
-65.0502 13.7209 78.0017  255 255 255
-65.3543 14.3075 78.1131  255 255 255
-65.1643 8.7916 78.288  255 255 255
-65.7388 6.51981 78.4934  255 255 255
-65.8504 7.05797 78.5052  255 255 255
-66.1016 12.6366 78.3572  255 255 255
-66.3436 13.1302 78.4016  255 255 255
-66.2243 7.93911 78.5561  255 255 255
-66.7777 8.55062 78.686  255 255 255
-66.8663 6.89048 78.7829  255 255 255
-67.0381 10.4956 78.7458  255 255 255
-67.4214 9.8943 78.8342  255 255 255
-67.6277 14.634 78.7452  255 255 255
-67.6045 10.0016 78.8992  255 255 255
-67.579 7.00601 78.9817  255 255 255
-67.8216 10.1364 78.9262  255 255 255
-67.8316 6.01281 79.0938  255 255 255
44.0987 2.64371 -0.274216  255 255 255
-19.3838 19.3806 18.1296  255 255 255
11.3968 58.4302 -57.5626  255 255 255
-28.8925 17.2502 20.1567  255 255 255
-31.1438 -12.0213 20.7836  255 255 255
-64.164 17.6017 77.6661  255 255 255
-64.0574 14.4349 77.7515  255 255 255
-64.1189 10.6774 77.8622  255 255 255
-64.3155 11.5698 77.8695  255 255 255
-64.4641 10.6735 77.9337  255 255 255
-64.5868 6.17003 78.2019  255 255 255
-65.3064 8.65044 78.3518  255 255 255
-65.87 19.2123 78.2234  255 255 255
-66.2694 13.0411 78.4151  255 255 255
-66.4146 13.0261 78.4353  255 255 255
-66.5104 12.5582 78.5157  255 255 255
-66.4735 7.33174 78.6053  255 255 255
-66.6858 11.3292 78.61  255 255 255
-66.6765 11.3199 78.5629  255 255 255
-67.8689 13.347 78.9608  255 255 255
14.4093 56.8666 -58.2914  255 255 255
-27.4318 21.7536 20.1176  255 255 255
-63.9561 18.7886 77.5774  255 255 255
-64.3732 16.8974 77.7644  255 255 255
-64.372 6.5051 78.1632  255 255 255
-64.938 17.7481 77.8911  255 255 255
-65.3426 12.7394 78.179  255 255 255
-65.4695 13.2193 78.1807  255 255 255
-66.1539 17.0586 78.3899  255 255 255
-65.8832 7.35429 78.4969  255 255 255
-65.934 6.85587 78.5617  255 255 255
-66.2158 11.9424 78.4217  255 255 255
-66.2514 6.69021 78.5727  255 255 255
-66.6432 8.26888 78.6667  255 255 255
-66.6268 6.92836 78.7105  255 255 255
-67.3258 9.74435 78.8543  255 255 255
-67.4717 14.008 78.722  255 255 255
-67.5208 8.51007 78.8823  255 255 255
-67.6671 9.1082 78.9286  255 255 255
49.0333 -14.3382 -59.4427  255 255 255
-32.2516 21.4744 20.8484  255 255 255
-34.4249 -8.94886 22.0163  255 255 255
-34.8215 -7.51491 21.3656  255 255 255
-64.9438 19.1931 77.9414  255 255 255
-64.5243 6.99576 78.15  255 255 255
-64.7362 7.11868 78.2478  255 255 255
-64.7673 6.73347 78.2446  255 255 255
-65.0774 8.72696 78.219  255 255 255
-65.3255 6.82114 78.3404  255 255 255
-65.8462 13.0722 78.3155  255 255 255
-66.0741 17.3734 78.273  255 255 255
-66.2593 8.23506 78.571  255 255 255
-66.2797 7.21613 78.482  255 255 255
-66.5432 11.7564 78.5455  255 255 255
-66.9154 12.5586 78.5799  255 255 255
-67.0598 15.2658 78.5561  255 255 255
-67.0598 15.2658 78.5561  255 255 255
-67.0845 13.9105 78.5568  255 255 255
-64.9847 7.12241 78.2469  255 255 255
-66.6076 11.0169 78.5588  255 255 255
-67.8837 6.94893 79.1193  255 255 255
44.8317 19.5841 -0.943365  255 255 255
44.8317 19.5841 -0.943365  255 255 255
-66.3971 14.1801 78.4279  255 255 255
47.5888 6.66292 0.695553  255 255 255
47.2058 2.46339 1.13507  255 255 255
50.0507 7.8481 -1.92223  255 255 255
49.696 -46.5192 0.987958  255 255 255
47.4978 0.38276 -1.41499  255 255 255
45.1025 31.795 -1.70416  255 255 255
44.6113 18.0001 -1.04858  255 255 255
44.1189 16.7061 -1.02538  255 255 255
44.5223 32.8875 -2.20916  255 255 255
44.1253 23.1219 -1.63365  255 255 255
43.3158 14.5514 -0.599548  255 255 255
43.8013 26.4216 -1.4859  255 255 255
43.0769 20.2131 -1.03422  255 255 255
44.3444 48.513 -2.9288  255 255 255
39.5768 6.296 2.73716  255 255 255
41.2031 -24.6063 3.00085  255 255 255
41.0206 -11.6517 2.07522  255 255 255
41.4607 18.0357 -0.0370909  255 255 255
42.4267 27.0168 -1.32789  255 255 255
42.1426 23.2498 -1.02978  255 255 255
42.1426 23.2498 -1.02978  255 255 255
39.498 28.121 1.34087  255 255 255
37.4718 20.0805 3.49789  255 255 255
41.3309 3.03156 0.262622  255 255 255
40.9627 3.08836 0.772549  255 255 255
39.1159 -27.7306 3.8058  255 255 255
40.6692 54.1942 -1.15926  255 255 255
40.0538 -47.8327 4.27393  255 255 255
38.4904 -12.5773 2.54471  255 255 255
36.6391 11.3086 3.19667  255 255 255
39.5622 10.2091 0.300831  255 255 255
37.266 18.9831 1.97448  255 255 255
38.7977 4.74867 0.373086  255 255 255
36.3662 -7.63654 3.48074  255 255 255
39.1672 28.2164 -0.918945  255 255 255
39.1044 -4.13533 -0.370013  255 255 255
36.7162 -42.5924 4.66501  255 255 255
36.104 -6.50116 1.22753  255 255 255
35.3044 -33.2563 3.21184  255 255 255
36.8147 -49.6992 1.96847  255 255 255
31.5302 -33.9523 5.66525  255 255 255
35.176 1.18135 -1.05823  255 255 255
34.1574 39.1592 -1.21472  255 255 255
28.9265 -9.47898 5.56235  255 255 255
35.6709 0.0244852 -2.12618  255 255 255
29.2379 18.1388 3.53555  255 255 255
31.7361 -5.39618 1.91034  255 255 255
36.9367 37.6632 -5.18437  255 255 255
36.9367 37.6632 -5.18437  255 255 255
35.4445 -2.25891 -2.37835  255 255 255
29.4765 -6.13641 4.09029  255 255 255
33.0251 39.338 -1.47679  255 255 255
33.3507 38.4525 -1.74809  255 255 255
30.4974 14.9548 1.14553  255 255 255
27.8558 -7.65432 4.06151  255 255 255
25.6534 -9.38635 6.29173  255 255 255
24.9339 -33.7621 7.70964  255 255 255
25.7831 -34.0775 6.72513  255 255 255
29.7031 39.3846 -1.14679  255 255 255
24.5065 -34.3078 7.65987  255 255 255
25.0335 14.5009 3.68865  255 255 255
25.9486 -6.05995 3.57225  255 255 255
20.9558 -36.8634 9.5714  255 255 255
19.881 15.778 7.59079  255 255 255
25.5782 -6.35061 2.05839  255 255 255
89.3517 2.34885 -73.604  255 255 255
25.2062 39.9926 -1.42138  255 255 255
13.6528 -32.2625 14.4506  255 255 255
19.7821 47.7808 2.64064  255 255 255
21.5962 40.0725 0.500301  255 255 255
16.5518 14.8653 6.4613  255 255 255
16.7131 14.8533 6.14918  255 255 255
13.0056 17.5527 10.3798  255 255 255
14.9887 19.0434 7.75702  255 255 255
16.5623 45.3615 4.92184  255 255 255
12.9578 16.6848 9.6653  255 255 255
83.5881 4.99034 -73.3388  255 255 255
83.0396 -12.9569 -72.1766  255 255 255
83.0714 5.24247 -74.2374  255 255 255
12.9248 -36.2635 11.8992  255 255 255
80.73 0.573845 -74.0264  255 255 255
5.92609 -33.4281 17.85  255 255 255
10.5106 19.5952 8.89487  255 255 255
11.8289 -32.7482 9.56245  255 255 255
10.7838 45.6414 7.11418  255 255 255
10.6975 -32.1962 9.12195  255 255 255
7.95907 -30.7623 11.727  255 255 255
7.18637 -8.16955 11.368  255 255 255
5.9569 -7.76364 11.4552  255 255 255
8.36338 -5.37201 8.18152  255 255 255
5.875 -7.56656 11.2913  255 255 255
7.41283 -5.41041 8.85094  255 255 255
3.90983 -8.69055 12.4078  255 255 255
2.9488 17.7862 10.7918  255 255 255
2.17838 -7.56022 12.38  255 255 255
1.76565 -7.47658 12.4953  255 255 255
1.38057 -33.0074 13.9225  255 255 255
2.64411 42.2879 9.29997  255 255 255
23.6347 70.582 -20.6828  255 255 255
48.4976 39.8247 -58.0738  255 255 255
-0.765487 21.1797 10.8563  255 255 255
-3.02111 -7.87387 14.4055  255 255 255
45.772 -41.0803 -58.2426  255 255 255
-3.46855 42.5608 11.2655  255 255 255
-5.09599 17.8677 13.9831  255 255 255
42.9119 4.36378 -56.7098  255 255 255
-5.39096 -32.6994 15.121  255 255 255
43.9377 38.5947 -61.6682  255 255 255
39.9217 -15.6861 -55.2804  255 255 255
-7.16368 20.2283 14.3808  255 255 255
-9.1372 -9.43982 16.7664  255 255 255
-6.13766 40.5633 10.5778  255 255 255
41.2226 -48.0144 -60.6739  255 255 255
34.4176 -40.0888 -53.0698  255 255 255
-8.8456 41.9152 12.8763  255 255 255
-8.59724 42.0155 12.5419  255 255 255
-11.2883 -29.3754 16.6239  255 255 255
7.18047 67.8547 -15.9666  255 255 255
-10.8972 16.0227 14.0769  255 255 255
6.93497 68.5447 -16.1072  255 255 255
-11.4454 -31.9181 16.4937  255 255 255
5.58896 67.8859 -15.4377  255 255 255
-11.2347 40.9909 12.4066  255 255 255
5.13743 67.3529 -15.6504  255 255 255
-12.7819 41.8212 14.6583  255 255 255
-10.8254 41.0736 11.2281  255 255 255
26.6458 0.981533 -51.7033  255 255 255
-14.7321 -5.71582 15.9764  255 255 255
-16.1216 -6.92369 17.905  255 255 255
-16.4068 -33.2366 18.4609  255 255 255
-16.4068 -33.2366 18.4609  255 255 255
-15.5608 15.4127 14.9535  255 255 255
-21.623 -34.5026 25.2921  255 255 255
-21.9193 -34.4984 25.361  255 255 255
-18.2269 16.4571 17.0988  255 255 255
-18.7739 -6.8305 18.3958  255 255 255
-18.9876 -7.13685 18.6515  255 255 255
-19.439 19.7094 18.2197  255 255 255
-20.4559 -8.64876 19.721  255 255 255
-17.7754 39.6989 12.5398  255 255 255
-20.6397 -31.2444 18.5938  255 255 255
-20.4117 45.7286 16.8108  255 255 255
-18.886 40.2026 13.7578  255 255 255
-21.9016 -6.3663 20.2217  255 255 255
-22.5647 45.9368 18.808  255 255 255
-20.5365 40.768 14.7958  255 255 255
-21.3723 -31.1742 17.1862  255 255 255
-21.243 40.7868 15.8207  255 255 255
12.2003 32.2045 -52.2566  255 255 255
11.7581 32.4956 -52.476  255 255 255
11.7287 34.3976 -53.1048  255 255 255
18.4945 50.9263 -68.8269  255 255 255
-24.6448 18.6765 19.7825  255 255 255
-22.5091 41.4488 14.9962  255 255 255
-23.0294 40.5633 15.5905  255 255 255
18.1265 52.1153 -71.0033  255 255 255
-24.5219 41.8699 18.1606  255 255 255
-22.4298 39.9113 12.9  255 255 255
-25.5936 42.7315 19.3041  255 255 255
7.92818 34.2176 -52.81  255 255 255
-26.4964 17.873 20.1579  255 255 255
-26.2068 21.9305 19.4314  255 255 255
-26.4016 -31.3903 19.3473  255 255 255
-26.4842 41.0009 16.802  255 255 255
-28.6138 17.8674 20.6736  255 255 255
-28.851 15.5653 18.8654  255 255 255
-28.8293 40.3049 17.9821  255 255 255
-28.8293 40.3049 17.9821  255 255 255
-2.68596 42.8903 -46.7722  255 255 255
-1.30084 52.2206 -52.1802  255 255 255
-31.4612 20.5596 20.9554  255 255 255
-31.7254 21.6328 21.5108  255 255 255
-30.2226 42.062 17.1858  255 255 255
-3.04928 51.8185 -51.2233  255 255 255
-31.6517 41.3204 19.6001  255 255 255
-32.685 43.5638 20.4152  255 255 255
-34.2613 -11.2697 24.118  255 255 255
-32.746 40.9342 17.8836  255 255 255
-35.7648 -6.03055 23.9477  255 255 255
-34.885 42.8757 20.8156  255 255 255
-34.6162 41.7317 19.6887  255 255 255
-35.4977 18.2693 22.1905  255 255 255
-36.0558 18.6466 23.1878  255 255 255
-36.8544 -10.206 24.7701  255 255 255
-34.36 40.7484 17.4827  255 255 255
-36.9664 -8.65459 24.5358  255 255 255
-36.9664 -8.65459 24.5358  255 255 255
-35.2087 40.1629 19.385  255 255 255
-35.6409 42.2031 20.339  255 255 255
-37.368 -8.79982 24.1396  255 255 255
-36.943 40.9005 21.5546  255 255 255
-36.3007 41.5868 19.6749  255 255 255
-38.8727 -10.6131 25.8385  255 255 255
-36.0759 41.4272 16.7693  255 255 255
-38.2261 22.1866 22.8217  255 255 255
-15.4064 52.2985 -46.412  255 255 255
-37.5056 40.9342 18.7139  255 255 255
-37.3375 41.0548 18.3646  255 255 255
-39.3329 17.8986 23.0258  255 255 255
-39.0061 15.722 21.9117  255 255 255
-39.6761 18.036 23.9129  255 255 255
-20.2046 42.8358 -39.7594  255 255 255
-20.3059 43.1639 -39.7341  255 255 255
-19.6759 44.2155 -43.1255  255 255 255
-40.5965 18.7334 23.9227  255 255 255
-42.4936 16.8192 23.4323  255 255 255
-43.9918 -7.63198 26.109  255 255 255
-43.2275 16.7314 23.9815  255 255 255
-43.9646 40.7597 22.6977  255 255 255
-45.3818 20.8601 25.1873  255 255 255
-45.8053 20.0154 26.1474  255 255 255
-46.6459 -9.6803 27.106  255 255 255
-46.3716 -6.31176 25.6562  255 255 255
-46.6265 -6.6216 25.961  255 255 255
-46.5853 17.8369 25.9119  255 255 255
-46.7977 21.673 26.2297  255 255 255
-46.7416 15.4661 23.3375  255 255 255
-48.4348 16.9555 25.5356  255 255 255
-49.6397 17.2272 25.5263  255 255 255
-49.8692 17.9353 25.9635  255 255 255
-50.215 18.776 26.7691  255 255 255
-50.2136 18.7754 26.7495  255 255 255
-49.9903 15.1271 23.4398  255 255 255
-50.6006 19.9073 26.4073  255 255 255
-50.6525 18.9194 26.2549  255 255 255
-50.3371 15.0941 23.6286  255 255 255
-40.8236 5.57028 -32.9432  255 255 255
-40.8517 3.8505 -32.9282  255 255 255
-51.5924 19.8623 28.4913  255 255 255
-41.3238 0.931967 -33.1391  255 255 255
-51.8388 19.9116 29.2469  255 255 255
-52.6568 -7.11758 28.3783  255 255 255
-52.9634 16.6695 27.2986  255 255 255
-53.3487 -3.11152 25.4635  255 255 255
-53.5621 -3.41823 26.0092  255 255 255
-53.4444 25.2362 26.7267  255 255 255
-54.3297 20.7887 30.8024  255 255 255
-54.3258 19.321 29.8189  255 255 255
-53.8318 14.1838 24.1721  255 255 255
-54.7409 21.1103 30.8743  255 255 255
46.728 28.418 -0.545712  255 255 255
45.3083 -1.01029 0.922805  255 255 255
42.9717 -11.0203 2.91648  255 255 255
43.732 -23.2718 2.50562  255 255 255
43.732 -23.2718 2.50562  255 255 255
45.0388 26.9094 -1.40226  255 255 255
41.244 18.8176 0.0690139  255 255 255
43.4231 -47.6283 1.66853  255 255 255
39.7473 23.0073 -0.0717439  255 255 255
36.2888 38.3522 1.11719  255 255 255
36.2231 19.4739 1.50219  255 255 255
39.1878 27.9306 -2.51611  255 255 255
34.7175 12.4552 1.94228  255 255 255
38.0011 5.69341 -3.11466  255 255 255
37.4122 -0.451724 -4.31476  255 255 255
35.3315 2.53153 -2.4589  255 255 255
35.7561 10.4799 -4.21621  255 255 255
31.077 14.1793 0.384143  255 255 255
30.3387 40.7943 0.365902  255 255 255
35.9839 37.6098 -5.38579  255 255 255
31.2027 13.8096 0.190213  255 255 255
29.8888 13.787 1.5679  255 255 255
26.7116 -12.0747 5.69665  255 255 255
26.7552 18.4238 4.15313  255 255 255
31.343 -32.7127 1.605  255 255 255
23.6466 16.853 6.79623  255 255 255
26.7424 21.1933 2.09314  255 255 255
32.4282 38.373 -5.69872  255 255 255
22.2552 18.443 5.44314  255 255 255
97.2996 -12.4625 -78.0546  255 255 255
97.809 -12.5524 -78.6601  255 255 255
18.4872 15.8153 7.64313  255 255 255
93.6734 -17.0226 -75.8709  255 255 255
33.1495 64.3162 -10.4594  255 255 255
32.3362 64.0196 -10.3047  255 255 255
20.769 14.1995 3.07454  255 255 255
38.2242 -62.1474 -13.7641  255 255 255
15.5966 -9.47077 8.70065  255 255 255
20.5054 64.1977 1.05636  255 255 255
20.5054 64.1977 1.05636  255 255 255
14.512 -9.23797 9.70165  255 255 255
14.662 -9.29663 9.45253  255 255 255
34.6234 -65.4751 -10.8538  255 255 255
14.1411 -5.82579 7.66434  255 255 255
13.5731 -32.8046 9.82276  255 255 255
11.7153 -30.1979 10.8547  255 255 255
13.1781 20.6496 6.6679  255 255 255
77.4602 -9.61903 -71.7532  255 255 255
10.887 20.7151 8.34897  255 255 255
32.9713 66.5332 -25.7674  255 255 255
27.9607 64.0163 -19.8397  255 255 255
1.14858 21.1361 10.8103  255 255 255
-0.969547 -8.12488 14.6284  255 255 255
0.986434 21.1877 10.4516  255 255 255
-1.47944 -10.1632 14.1501  255 255 255
22.6059 61.9685 -22.0553  255 255 255
-1.98049 45.4339 11.0294  255 255 255
-4.20087 -7.99254 14.802  255 255 255
2.95388 -5.86266 3.19177  255 255 255
-3.96782 -6.07423 13.0651  255 255 255
-5.84529 44.5982 12.4587  255 255 255
44.7221 -54.2995 -61.1674  255 255 255
-6.40305 42.5811 12.0949  255 255 255
-6.80073 -31.195 11.4201  255 255 255
-13.9303 -29.3768 18.5958  255 255 255
-12.9551 43.1132 15.0841  255 255 255
-11.7507 40.0911 11.8253  255 255 255
-14.1726 41.8921 14.8671  255 255 255
-14.2756 15.2661 14.8747  255 255 255
26.187 -5.99946 -56.0874  255 255 255
-18.8519 -5.6785 18.3748  255 255 255
-18.3004 -5.53589 16.9185  255 255 255
22.1656 47.4318 -62.6154  255 255 255
22.1656 47.4318 -62.6154  255 255 255
-22.7756 -29.125 22.1102  255 255 255
-21.4623 16.8012 17.9159  255 255 255
-22.5094 19.8249 19.0797  255 255 255
-22.3471 16.2662 17.9213  255 255 255
-22.8477 -31.3596 18.3836  255 255 255
-22.2936 40.8807 15.3275  255 255 255
-23.945 44.1263 18.1235  255 255 255
-26.4575 -10.6447 22.0826  255 255 255
-26.2181 44.4427 19.7496  255 255 255
-27.8202 18.2702 20.7525  255 255 255
-29.3809 20.6136 20.6609  255 255 255
-27.4156 40.618 13.6988  255 255 255
-1.61194 42.896 -47.7658  255 255 255
-30.5167 18.1803 21.2627  255 255 255
-31.7135 -8.56104 22.6742  255 255 255
-30.9654 21.5874 20.7354  255 255 255
-31.1845 41.2223 20.1735  255 255 255
-32.7047 21.2373 21.4062  255 255 255
-32.7047 21.2373 21.4062  255 255 255
-32.6822 21.9253 20.7854  255 255 255
-33.5553 18.0574 22.3086  255 255 255
-34.0686 43.6741 22.786  255 255 255
-5.63728 33.9818 -54.3824  255 255 255
-36.4959 -9.0206 24.1328  255 255 255
-36.4315 -11.5989 22.8708  255 255 255
-36.9975 -10.2593 24.1017  255 255 255
-35.3001 41.5674 19.4889  255 255 255
-36.6755 19.7702 23.3496  255 255 255
-36.9936 16.4052 22.2582  255 255 255
-37.2486 17.2207 22.6779  255 255 255
-34.7881 41.1129 15.1839  255 255 255
-36.7801 40.9716 20.7627  255 255 255
-35.4299 41.3633 15.9471  255 255 255
-36.8649 40.3933 19.4375  255 255 255
-36.8649 40.3933 19.4375  255 255 255
-39.9776 17.3838 23.9073  255 255 255
-38.9786 40.9816 19.5068  255 255 255
-39.3842 40.21 20.3155  255 255 255
-40.6171 18.8549 24.2922  255 255 255
-39.447 41.3354 19.1402  255 255 255
-41.0557 -5.14449 23.6252  255 255 255
-40.8844 18.3677 23.8564  255 255 255
-42.0773 -10.087 25.4491  255 255 255
-42.0327 20.4163 24.8582  255 255 255
-43.9586 -11.5713 26.0498  255 255 255
-43.8407 18.7267 25.1895  255 255 255
-43.8407 18.7267 25.1895  255 255 255
-45.4293 -8.5772 27.8248  255 255 255
-45.121 -6.56519 25.7119  255 255 255
-44.8643 18.4577 25.5641  255 255 255
-46.0305 -6.14427 25.7255  255 255 255
-46.24 -6.10701 25.809  255 255 255
-45.9941 21.4528 26.1362  255 255 255
-46.3057 17.4327 24.7131  255 255 255
-46.3057 17.4327 24.7131  255 255 255
-47.2642 21.4522 26.438  255 255 255
-48.1073 -11.8279 26.0481  255 255 255
-50.1526 -9.0151 27.4977  255 255 255
-49.5466 17.0225 25.312  255 255 255
-49.9961 21.338 27.5228  255 255 255
-50.2523 19.0874 27.413  255 255 255
-51.5143 22.932 27.9632  255 255 255
-52.1332 17.1449 28.4506  255 255 255
-52.1077 23.1381 28.4177  255 255 255
-52.1677 22.881 28.2522  255 255 255
-52.4509 22.5058 28.7211  255 255 255
-52.4699 20.5427 28.3362  255 255 255
-52.5357 22.809 28.8849  255 255 255
-52.4685 21.4353 28.0907  255 255 255
-53.4268 -4.39512 28.3502  255 255 255
-53.4268 -4.39512 28.3502  255 255 255
-53.0208 18.2911 28.9528  255 255 255
-53.0833 17.5214 28.7947  255 255 255
-53.46 -3.18092 25.6072  255 255 255
-53.6574 19.111 30.0764  255 255 255
-54.3178 -4.29001 29.0026  255 255 255
-53.8424 17.8365 29.0629  255 255 255
-54.1495 20.7419 30.5006  255 255 255
-54.8171 -4.48479 29.3721  255 255 255
-54.3428 21.1434 30.7492  255 255 255
-54.4836 21.8302 30.2879  255 255 255
50.0269 -6.37368 -0.952937  255 255 255
49.788 -13.1139 -0.690527  255 255 255
24.9424 14.4164 4.8894  255 255 255
24.9424 14.4164 4.8894  255 255 255
27.3754 22.503 -1.68569  255 255 255
33.6642 -63.0886 -7.75448  255 255 255
85.9082 37.6287 -74.3768  255 255 255
9.59574 -32.2902 16.3263  255 255 255
18.5478 64.2554 1.41853  255 255 255
63.6267 -16.2798 -62.5151  255 255 255
1.14203 -36.4222 14.526  255 255 255
43.3972 5.08663 -56.6189  255 255 255
-3.03038 40.6342 9.61033  255 255 255
-7.20135 15.8478 13.7464  255 255 255
-10.8651 -31.4606 14.5585  255 255 255
29.5712 -4.65164 -54.2209  255 255 255
27.1315 5.91671 -55.5676  255 255 255
-17.0419 -7.21017 18.3431  255 255 255
-23.9125 19.6911 19.139  255 255 255
-23.7453 21.5558 18.6109  255 255 255
-23.6695 45.6011 17.8534  255 255 255
-23.3749 42.3749 17.275  255 255 255
-22.7089 40.9131 15.8439  255 255 255
-26.0975 18.0184 20.1001  255 255 255
-31.0614 20.5466 21.6525  255 255 255
-2.88126 2.96476 -47.7294  255 255 255
-31.129 14.7354 18.1126  255 255 255
-7.63794 -6.93638 -45.899  255 255 255
-34.9664 -32.6277 23.7364  255 255 255
-37.5534 -30.8607 21.0875  255 255 255
-36.9083 40.7019 16.949  255 255 255
-41.2447 40.96 19.2346  255 255 255
-44.2441 20.0713 25.3143  255 255 255
-45.0761 -6.05811 25.2839  255 255 255
-49.1803 21.7595 26.9175  255 255 255
-49.3604 15.6057 24.0443  255 255 255
-50.7634 15.534 25.3588  255 255 255
-51.5738 19.5495 28.2661  255 255 255
-52.098 19.683 29.2566  255 255 255
-52.235 21.3033 29.2022  255 255 255
-52.6786 23.0067 28.7416  255 255 255
-52.8716 17.5749 28.6451  255 255 255
-52.967 -2.86126 25.754  255 255 255
-53.4203 20.0998 29.5671  255 255 255
-53.6183 -3.59431 27.2031  255 255 255
-54.7657 -4.64614 30.3997  255 255 255
-54.8188 -3.59286 28.2131  255 255 255
50.6059 12.617 -1.81746  255 255 255
37.7082 -29.8274 3.57954  255 255 255
33.0326 11.7621 -1.92286  255 255 255
89.6192 42.0718 -74.6707  255 255 255
39.9345 -61.6578 -15.1284  255 255 255
22.5222 40.1592 -0.992268  255 255 255
15.2501 -34.9667 8.88956  255 255 255
30.6612 63.2033 -14.7296  255 255 255
66.2966 1.53508 -72.8298  255 255 255
-4.78138 13.3326 7.65633  255 255 255
-8.61555 22.4025 12.9089  255 255 255
-10.3107 18.9187 14.7346  255 255 255
-21.7614 40.1141 15.1528  255 255 255
-23.697 41.099 15.9883  255 255 255
-28.1146 19.2326 20.6398  255 255 255
-0.100684 5.21781 -46.8867  255 255 255
-37.6638 40.5569 18.3409  255 255 255
-44.0511 -6.82845 25.3069  255 255 255
-43.7287 16.7034 24.3826  255 255 255
-47.1255 21.664 26.1563  255 255 255
-31.5095 -55.653 -60.3061  255 255 255
-48.2832 20.3738 26.6896  255 255 255
-49.0118 19.4031 27.1793  255 255 255
-52.4486 -10.3488 29.4951  255 255 255
-38.7409 -54.2361 -57.9334  255 255 255
-52.1167 21.7443 29.1045  255 255 255
-51.6916 15.7104 25.8653  255 255 255
-44.9297 4.07526 -32.869  255 255 255
-55.453 -10.5441 31.6981  255 255 255
-55.0991 -3.77721 28.0956  255 255 255
54.0703 13.3864 -4.93201  255 255 255
51.3118 -2.70345 -2.60379  255 255 255
46.6609 -4.68345 0.131523  255 255 255
47.0056 -12.7924 0.0426585  255 255 255
36.0281 45.6857 -0.751469  255 255 255
35.0749 41.4736 -0.447737  255 255 255
31.3153 -7.18782 2.92985  255 255 255
38.4757 4.57084 -6.69642  255 255 255
28.6279 46.3228 1.67965  255 255 255
37.7465 64.7108 -12.3391  255 255 255
38.3128 64.2363 -13.0369  255 255 255
42.0793 64.3498 -17.594  255 255 255
43.1099 -61.4739 -16.0104  255 255 255
20.1613 16.3003 5.17569  255 255 255
44.4235 63.1857 -24.4428  255 255 255
24.021 39.7697 -0.909147  255 255 255
27.8256 -57.5029 -2.25287  255 255 255
70.5638 4.42898 -69.9725  255 255 255
7.19482 -5.57661 10.3475  255 255 255
65.7814 5.08245 -73.7307  255 255 255
25.757 67.4879 -21.3262  255 255 255
25.757 67.4879 -21.3262  255 255 255
25.4933 66.7141 -21.1284  255 255 255
20.3187 67.5469 -18.523  255 255 255
49.4055 -15.1291 -59.3655  255 255 255
51.6493 -15.7079 -62.2331  255 255 255
18.2971 -61.0517 -14.1738  255 255 255
51.0898 -13.8506 -63.8122  255 255 255
48.1663 -12.9131 -61.1776  255 255 255
48.5299 -10.2122 -63.1439  255 255 255
36.5767 -2.34781 -57.0688  255 255 255
6.37061 65.5131 -13.5891  255 255 255
6.92064 65.9101 -14.5976  255 255 255
32.2636 5.33565 -55.9953  255 255 255
29.3946 51.757 -53.7249  255 255 255
0.832543 -60.1196 -10.3146  255 255 255
-0.728575 -51.1128 -59.9663  255 255 255
-7.26959 -53.5104 -62.2772  255 255 255
-13.3551 0.856051 -50.8235  255 255 255
-18.8346 -1.84097 -49.8048  255 255 255
-20.9998 -2.53191 -48.6897  255 255 255
-29.6056 -53.336 -59.235  255 255 255
-35.1536 44.3781 -29.0418  255 255 255
-31.2668 1.23538 -48.1754  255 255 255
-37.8059 -51.9763 -53.6724  255 255 255
55.8502 55.0249 -7.74138  255 255 255
51.0979 -14.4203 -2.02289  255 255 255
46.2873 -40.0601 4.37682  255 255 255
50.9229 3.46133 -3.58833  255 255 255
38.9172 58.8385 -0.709702  255 255 255
35.6018 12.8742 -1.03709  255 255 255
28.0712 -38.8953 7.98986  255 255 255
30.4362 -13.9943 3.27392  255 255 255
24.9079 -36.2866 10.3718  255 255 255
89.7019 39.6145 -73.1016  255 255 255
38.9505 -60.4258 -12.821  255 255 255
29.2392 -57.8118 -5.77158  255 255 255
13.5124 16.4196 7.4814  255 255 255
11.8438 20.2416 7.73393  255 255 255
31.8496 63.3285 -19.0097  255 255 255
17.5088 64.7183 -18.6549  255 255 255
48.2317 -43.2241 -60.7826  255 255 255
18.1584 -66.4779 -16.8815  255 255 255
12.2263 66.1926 -16.6201  255 255 255
37.4547 38.6345 -57.4331  255 255 255
8.53639 66.4861 -15.5157  255 255 255
30.1042 -55.2497 -60.5154  255 255 255
17.116 -12.1364 -55.3721  255 255 255
18.2585 -50.8323 -61.5645  255 255 255
-7.70187 9.77168 -45.9731  255 255 255
-21.6635 2.40463 -45.6452  255 255 255
-35.0844 39.3589 -29.8366  255 255 255
-48.9198 -10.8249 27.077  255 255 255
-49.5976 -6.57249 27.0193  255 255 255
-52.1683 -7.70897 28.539  255 255 255
-52.6716 24.2689 26.7806  255 255 255
50.5592 28.0623 -2.65973  255 255 255
53.0679 11.9115 -4.35872  255 255 255
50.1614 31.6817 -2.58015  255 255 255
54.0528 30.087 -5.98649  255 255 255
48.7246 18.6337 -0.967458  255 255 255
53.2852 -12.8085 -3.49841  255 255 255
49.3121 -14.5813 0.193472  255 255 255
50.561 21.2606 -4.05994  255 255 255
47.1619 18.7534 -1.19568  255 255 255
51.0203 48.0459 -5.63732  255 255 255
40.9276 -9.88259 1.75602  255 255 255
39.2928 12.5391 -0.766321  255 255 255
32.8117 -35.4414 7.64405  255 255 255
30.6272 -39.4259 7.48667  255 255 255
33.3065 43.6907 0.269892  255 255 255
34.8566 10.1419 -3.48659  255 255 255
35.6959 -56.0743 -6.1674  255 255 255
86.2989 -5.24264 -71.5963  255 255 255
28.9099 -60.497 -12.5636  255 255 255
74.6172 1.35559 -74.8979  255 255 255
66.4299 -0.417361 -72.2562  255 255 255
60.8004 46.9794 -66.7552  255 255 255
60.9274 -1.73145 -75.992  255 255 255
-3.58732 -10.2602 15.8527  255 255 255
-16.0196 40.0969 13.622  255 255 255
-34.4408 41.4682 19.2614  255 255 255
-36.9525 -10.0347 -46.3261  255 255 255
-52.3033 -5.24639 28.2264  255 255 255
-42.6593 -52.0746 -52.8809  255 255 255
51.3573 25.8793 -4.71025  255 255 255
49.641 15.8897 -2.91282  255 255 255
51.3791 12.7754 -4.18993  255 255 255
47.1674 34.3944 -1.46407  255 255 255
51.664 61.0813 -6.64089  255 255 255
44.2203 -39.0376 4.50944  255 255 255
42.2559 -47.5102 3.22911  255 255 255
36.915 -11.5974 3.53844  255 255 255
36.4887 15.8807 1.09969  255 255 255
35.41 18.1772 0.565009  255 255 255
35.3309 9.68933 -2.34733  255 255 255
19.7099 -35.7102 11.5839  255 255 255
93.7981 37.951 -75.3129  255 255 255
86.8567 -9.4634 -72.5993  255 255 255
36.3309 63.4784 -18.4969  255 255 255
-29.6893 17.3915 20.2162  255 255 255
-53.0738 -2.70552 24.0579  255 255 255
51.7321 -14.4022 -3.6  255 255 255
46.481 -35.3696 2.45685  255 255 255
38.2362 18.4961 0.201104  255 255 255
24.6703 -35.5539 9.11633  255 255 255
24.6703 -35.5539 9.11633  255 255 255
28.3704 40.2073 -0.97478  255 255 255
23.2936 39.9634 2.39627  255 255 255
49.0618 65.1677 -27.2082  255 255 255
81.1359 1.33849 -73.8765  255 255 255
46.4451 47.5817 -61.7382  255 255 255
44.5423 -4.04194 0.35808  255 255 255
