ply
format ascii 1.0
element vertex 1244
property float x
property float y
property float z
property uchar red
property uchar green
property uchar blue
end_header
-14.2262 -1.50663 -47.865  255 255 255
-13.9521 39.1955 -46.4935  255 255 255
262.716 105.883 -1208.79  255 255 255
-31.8556 46.6735 13.5242  255 255 255
-19.8807 39.4075 -44.1389  255 255 255
-34.6064 40.3757 16.597  255 255 255
-30.3903 41.2699 -42.2742  255 255 255
-33.9825 0.951799 -40.4822  255 255 255
-34.189 25.4624 -40.0709  255 255 255
-32.5855 40.0518 -40.7518  255 255 255
-39.8685 3.25514 -32.8917  255 255 255
-47.9966 -5.90429 25.1857  255 255 255
-45.0829 48.0112 18.9236  255 255 255
-47.0472 40.6238 18.7944  255 255 255
-46.4596 47.2585 19.8028  255 255 255
-46.8425 46.9416 21.2572  255 255 255
-51.4275 21.4004 25.9853  255 255 255
-50.799 3.13184 3.52297  255 255 255
-51.6643 22.8831 24.6446  255 255 255
-51.4095 24.2049 24.1176  255 255 255
-52.2562 45.1779 22.6509  255 255 255
-50.6176 45.038 18.9451  255 255 255
-52.0734 45.448 19.8043  255 255 255
-52.7707 39.0479 -37.8551  255 255 255
-54.0718 23.1028 24.9577  255 255 255
-51.4651 66.9695 -31.7228  255 255 255
-56.584 45.6678 23.2389  255 255 255
-62.2903 13.1928 48.3769  255 255 255
-62.7205 13.9229 53.2816  255 255 255
-63.3282 25.8973 56.7331  255 255 255
-63.5733 24.7611 60.6872  255 255 255
-62.5558 18.3622 73.4833  255 255 255
-63.7217 14.6772 73.5092  255 255 255
-62.5048 16.611 72.8304  255 255 255
-64.0644 16.7522 74.2411  255 255 255
-62.8724 16.9791 73.4399  255 255 255
-63.1452 17.719 74.4043  255 255 255
-63.4824 17.2167 73.9582  255 255 255
-63.9014 17.9248 73.1615  255 255 255
-63.8574 18.7917 73.6796  255 255 255
-62.7931 18.8276 73.2928  255 255 255
-62.965 16.4559 73.2036  255 255 255
-63.3875 14.7883 73.8602  255 255 255
-63.4646 15.2984 74.9342  255 255 255
-63.835 15.7194 73.8658  255 255 255
-63.965 16.5274 73.8652  255 255 255
-64.0981 18.6026 74.5313  255 255 255
-64.3447 15.8163 74.1795  255 255 255
-64.5498 15.5854 74.1355  255 255 255
-63.6806 16.8474 74.306  255 255 255
-63.4753 17.1404 73.732  255 255 255
-64.5362 16.9343 73.3882  255 255 255
-64.7326 14.9181 73.8754  255 255 255
-64.8172 17.2432 73.2328  255 255 255
-64.6703 19.9897 73.3232  255 255 255
-64.6819 15.0763 72.4972  255 255 255
-65.0723 15.0232 73.6636  255 255 255
-64.2795 17.2563 74.996  255 255 255
-65.2746 18.4734 74.3429  255 255 255
-65.1394 18.8955 74.6928  255 255 255
-66.1331 18.1249 73.901  255 255 255
-64.2668 15.8054 73.4722  255 255 255
-64.4182 19.1364 72.8632  255 255 255
-65.4274 14.7701 72.9604  255 255 255
-64.5331 20.5521 74.5256  255 255 255
-65.6993 16.3331 74.1914  255 255 255
-66.1986 16.7935 74.2232  255 255 255
42.4433 -12.9838 -50.2675  255 255 255
45.5909 -3.05617 -62.6604  255 255 255
47.2421 -1.30093 -64.557  255 255 255
4.9011 -8.42272 6.81847  255 255 255
31.5093 -17.6823 -54.166  255 255 255
28.6518 -8.74767 -53.0377  255 255 255
30.3316 37.0861 -57.404  255 255 255
10.1951 64.6171 -25.2724  255 255 255
-8.55112 44.6868 10.1078  255 255 255
9.16349 28.5237 -52.2062  255 255 255
9.12569 30.2853 -52.1699  255 255 255
-16.7443 42.5065 13.756  255 255 255
-23.3054 46.106 14.3564  255 255 255
-15.2264 38.9174 -47.3197  255 255 255
-34.5462 40.31 15.1901  255 255 255
-28.2491 0.228206 -43.7627  255 255 255
-37.6493 23.7183 19.294  255 255 255
-30.1567 -4.15476 -42.6912  255 255 255
-28.4669 40.5362 -42.014  255 255 255
-38.7749 45.8315 17.6619  255 255 255
-32.1507 39.817 -40.5685  255 255 255
-42.8447 21.2 22.1269  255 255 255
-43.9488 47.0999 19.0754  255 255 255
-51.1398 -3.8646 24.2434  255 255 255
-50.7458 41.6068 19.1831  255 255 255
-50.9685 24.5748 -34.3142  255 255 255
-53.3719 15.9271 24.9651  255 255 255
-53.1082 46.4428 25.5175  255 255 255
-55.358 19.7322 25.6523  255 255 255
-54.5199 38.2602 -32.9259  255 255 255
-56.5503 42.5401 25.0495  255 255 255
-56.7658 43.6669 24.6768  255 255 255
-62.6145 19.2809 73.9586  255 255 255
-63.5529 16.4745 74.3921  255 255 255
-62.8938 16.7541 73.7298  255 255 255
-62.535 18.7924 73.1599  255 255 255
-62.024 16.6911 72.9862  255 255 255
-62.9101 20.0585 73.5756  255 255 255
-63.7087 17.8869 72.9981  255 255 255
-64.6491 22.5809 62.9226  255 255 255
-62.8936 19.752 73.4058  255 255 255
-64.2138 16.8088 73.8686  255 255 255
-63.7564 14.1971 74.1421  255 255 255
-63.6045 17.154 72.8556  255 255 255
-64.9399 15.7175 73.8108  255 255 255
-63.0855 16.9052 73.9978  255 255 255
-64.2172 18.8185 72.802  255 255 255
-63.9594 17.4789 72.9828  255 255 255
-65.7651 15.0369 73.3615  255 255 255
-62.8893 15.8578 74.6388  255 255 255
-65.5022 15.5504 74.3093  255 255 255
-64.3598 19.485 74.8987  255 255 255
-64.7094 19.898 74.0401  255 255 255
-65.6521 17.5527 73.7813  255 255 255
-65.0962 18.6299 72.9549  255 255 255
-65.4871 17.7839 74.6779  255 255 255
-66.3354 15.0701 74.1745  255 255 255
-66.9934 14.9185 75.4165  255 255 255
29.8576 -4.11839 -57.6472  255 255 255
22.0143 -3.67063 -56.261  255 255 255
-28.0551 -3.18424 -43.1605  255 255 255
-38.4734 36.9113 -37.6582  255 255 255
-48.4153 -4.50804 24.7485  255 255 255
-47.1128 47.3691 20.2934  255 255 255
-52.0262 -3.01176 25.9384  255 255 255
-51.6527 -5.34631 27.0725  255 255 255
-53.4504 22.4391 27.0418  255 255 255
-59.1848 46.3975 22.8293  255 255 255
-17.708 19.7936 15.3481  255 255 255
-12.0168 -3.07589 -46.1534  255 255 255
-36.497 -5.48865 21.1732  255 255 255
-36.335 -2.49535 -43.2371  255 255 255
-37.44 65.3173 -13.4339  255 255 255
-47.5528 -4.6725 23.2268  255 255 255
-49.593 4.93645 3.66404  255 255 255
-56.6004 43.497 24.8475  255 255 255
24.2005 37.4938 -57.8014  255 255 255
-32.7966 36.6324 -44.442  255 255 255
-45.791 45.5403 18.1773  255 255 255
-43.4444 63.937 -35.8931  255 255 255
-48.4483 45.7839 21.6519  255 255 255
-54.0481 -3.70878 26.5037  255 255 255
-54.7095 42.3863 24.3533  255 255 255
-54.5919 41.5747 24.4648  255 255 255
-58.1232 46.4703 25.5127  255 255 255
-63.6667 16.1354 73.2581  255 255 255
-22.5493 -4.99571 -44.5743  255 255 255
-36.4626 38.0927 -39.9351  255 255 255
-42.2592 37.6805 -37.5653  255 255 255
-51.074 44.8287 22.5588  255 255 255
-64.3533 18.6528 74.5046  255 255 255
138.447 2.48091 -94.1661  255 255 255
100.715 -27.9125 -70.0317  255 255 255
108.284 -21.3348 -81.0975  255 255 255
104.504 -11.23 -75.7658  255 255 255
42.6258 -60.8489 1.23353  255 255 255
47.77 -45.6518 -2.41734  255 255 255
45.2221 -65.5359 -10.7438  255 255 255
105.036 22.0539 -82.9384  255 255 255
48.4191 -35.5695 -2.50746  255 255 255
46.5233 -75.1851 -32.2278  255 255 255
45.9892 -32.3676 -2.27045  255 255 255
45.9894 -31.9691 -0.953677  255 255 255
33.9558 -61.7332 2.91247  255 255 255
37.6013 -52.3437 -0.553052  255 255 255
45.5055 -26.5367 0.53415  255 255 255
42.9332 -30.3357 -0.968002  255 255 255
30.0818 -59.1744 1.60566  255 255 255
41.5111 -26.1105 0.0444166  255 255 255
41.7514 -25.531 -1.87396  255 255 255
42.3509 -70.6376 -36.908  255 255 255
37.1161 -35.8537 -0.121051  255 255 255
36.6167 -65.822 -21.258  255 255 255
48.7139 2.61714 -2.97081  255 255 255
34.6688 -36.3999 1.6441  255 255 255
50.3443 7.99092 -7.30775  255 255 255
40.7504 -18.2133 -0.408467  255 255 255
38.351 -23.8906 -1.1867  255 255 255
40.6731 -9.47032 -1.84542  255 255 255
37.766 -68.7731 -41.1354  255 255 255
52.0676 22.3372 -7.58336  255 255 255
36.4511 -69.4547 -44.4853  255 255 255
19.5705 -62.3933 8.7105  255 255 255
51.2337 30.6342 -9.43505  255 255 255
20.5293 -56.9816 4.31593  255 255 255
20.3457 -56.8267 4.11404  255 255 255
52.8789 -30.5616 -64.5856  255 255 255
51.3401 40.4256 -10.0388  255 255 255
42.221 16.4476 -4.98512  255 255 255
37.03 3.56412 -1.86241  255 255 255
33.5488 -13.3181 -3.2575  255 255 255
41.3525 24.7343 -1.48506  255 255 255
53.3432 54.2448 -10.7246  255 255 255
60.9368 8.6887 -71.4237  255 255 255
59.837 9.46201 -70.9483  255 255 255
23.2556 -65.6322 -19.0641  255 255 255
37.1204 11.668 -2.20261  255 255 255
31.7504 -13.5939 -6.39404  255 255 255
37.0166 19.6655 0.526132  255 255 255
43.25 -24.6762 -58.0121  255 255 255
26.0598 -13.6077 0.26746  255 255 255
32.5792 14.2317 -2.89841  255 255 255
15.5195 -36.7698 7.62309  255 255 255
22.4605 -11.6783 4.08639  255 255 255
45.5336 10.8604 -59.9932  255 255 255
44.7074 11.3739 -61.6825  255 255 255
45.4008 14.3389 -60.6768  255 255 255
41.3947 4.34659 -59.152  255 255 255
26.2021 14.2486 0.761001  255 255 255
34.873 39.4928 -5.03805  255 255 255
55.672 52.3707 -72.3573  255 255 255
24.9599 16.0715 0.815292  255 255 255
32.8941 38.5194 -8.56645  255 255 255
29.4224 -21.9582 -53.4786  255 255 255
15.9884 -11.775 6.31183  255 255 255
22.1807 -66.6334 -67.7616  255 255 255
31.2868 40.5913 -6.52233  255 255 255
23.0486 17.6351 3.37636  255 255 255
8.36439 -36.8728 9.7455  255 255 255
29.1752 41.9962 -1.2094  255 255 255
23.1257 14.0773 -2.30658  255 255 255
34.9983 1.60216 -57.9107  255 255 255
26.1213 41.9182 0.172536  255 255 255
21.1541 14.2846 -0.0714936  255 255 255
4.2505 -36.6398 9.93572  255 255 255
19.6499 15.0211 -1.64562  255 255 255
24.3276 38.9446 0.231642  255 255 255
42.3326 66.0452 -46.804  255 255 255
35.4247 70.1469 -20.993  255 255 255
15.8768 14.9552 2.67301  255 255 255
15.0883 15.2864 3.85847  255 255 255
27.1813 9.22602 -56.4565  255 255 255
20.0028 -20.1914 -54.5951  255 255 255
34.3975 65.6915 -40.9389  255 255 255
34.6107 65.1521 -40.4997  255 255 255
13.5375 19.521 5.88003  255 255 255
19.7851 39.8191 -1.99956  255 255 255
2.67301 -10.5401 9.1772  255 255 255
20.9513 11.0126 -55.6814  255 255 255
8.81813 16.2286 7.95133  255 255 255
26.4458 64.819 -34.5303  255 255 255
-0.28703 -64.0388 -35.1963  255 255 255
-0.321645 -64.3575 -36.5251  255 255 255
-1.18868 -63.6392 -36.4176  255 255 255
-2.09477 -66.7791 -39.4117  255 255 255
-3.87216 -65.9033 -35.5036  255 255 255
8.55432 40.6517 -0.563819  255 255 255
-3.77882 -10.6641 13.0127  255 255 255
-10.0441 -61.1209 -10.3891  255 255 255
2.50179 17.1634 8.95874  255 255 255
18.9511 45.9171 -55.4296  255 255 255
-5.44561 -13.7504 8.2779  255 255 255
17.5459 57.1629 -59.1184  255 255 255
4.12806 39.0475 2.28645  255 255 255
4.01906 39.4785 3.01596  255 255 255
-18.1321 -60.4487 17.871  255 255 255
7.89641 65.7148 -26.7398  255 255 255
-5.61519 18.2863 11.5681  255 255 255
-0.178316 3.34399 -47.4028  255 255 255
-6.57031 40.072 3.83166  255 255 255
-15.2512 -11.9378 15.064  255 255 255
-21.4824 -37.8952 16.6928  255 255 255
-8.41369 40.104 5.87331  255 255 255
-2.45984 41.1108 -48.7835  255 255 255
-20.8296 -62.8935 -34.6088  255 255 255
-22.87 -60.8672 -5.27374  255 255 255
-13.8541 14.8488 12.8483  255 255 255
-16.0308 -27.382 -45.0167  255 255 255
-25.4027 -34.5246 19.7556  255 255 255
-28.8768 -66.2786 -28.1913  255 255 255
-25.179 -8.68458 19.3925  255 255 255
-32.8478 -62.8416 23.3069  255 255 255
-32.0115 -62.4768 21.3728  255 255 255
-30.2365 -36.5616 20.4852  255 255 255
-30.8595 -33.6808 22.3074  255 255 255
-33.6526 -59.9283 -3.90952  255 255 255
-31.2008 -11.4142 19.4069  255 255 255
-28.1908 11.7495 -44.2677  255 255 255
-29.6089 11.2599 -41.6961  255 255 255
-39.8316 -59.0531 25.0842  255 255 255
-35.2816 -25.0929 -38.0857  255 255 255
-33.3777 -6.77005 20.5282  255 255 255
-33.8639 -7.72082 21.6735  255 255 255
-41.3108 -62.9687 24.5885  255 255 255
-32.3919 13.9099 13.0401  255 255 255
-33.4704 11.0287 -44.0558  255 255 255
-28.5281 65.2933 -17.2666  255 255 255
-37.5235 -32.0049 -35.9601  255 255 255
-39.3106 -38.8335 20.8283  255 255 255
-39.7305 -19.6217 -40.1069  255 255 255
-40.9509 -24.9993 -34.8126  255 255 255
-35.9468 18.6934 19.2745  255 255 255
-44.4838 -64.2984 -22.0576  255 255 255
-41.5372 -36.1775 24.605  255 255 255
-42.8957 -26.8483 -33.5575  255 255 255
-35.0677 54.4446 -45.2723  255 255 255
-37.9378 17.0443 18.5922  255 255 255
-34.335 64.7727 -14.1128  255 255 255
-45.2159 -60.503 25.9188  255 255 255
-46.0441 -60.8535 27.0591  255 255 255
-41.3901 -13.7516 19.1581  255 255 255
-44.8818 -31.1854 -32.9742  255 255 255
-39.5674 44.0542 -33.5622  255 255 255
-47.2964 -33.8011 -31.6261  255 255 255
-41.1368 56.5996 -38.7244  255 255 255
-47.7288 -33.763 -30.8991  255 255 255
-42.4791 14.2357 18.3029  255 255 255
-48.0542 -60.5237 28.0824  255 255 255
-44.9022 -11.3512 22.0314  255 255 255
-44.5302 -9.15461 25.4222  255 255 255
-50.5917 -33.8219 -32.4997  255 255 255
-48.8514 -59.4106 26.322  255 255 255
-43.7871 18.9382 22.4293  255 255 255
-46.619 42.2159 -36.2661  255 255 255
-49.2863 7.33994 -34.3946  255 255 255
-49.1659 18.0817 -32.5582  255 255 255
-49.5411 17.0495 -33.0162  255 255 255
-49.3156 10.0892 -31.9307  255 255 255
-45.1193 18.8621 21.8014  255 255 255
-49.1127 -37.1781 25.2193  255 255 255
-46.2703 15.8446 20.0267  255 255 255
-49.6312 54.705 -38.5462  255 255 255
-54.1366 -60.0924 3.80679  255 255 255
-48.709 -12.8282 23.1331  255 255 255
-50.1869 43.5864 -33.5838  255 255 255
-49.3977 -10.8977 25.1985  255 255 255
-55.2182 7.96956 -32.794  255 255 255
-53.7805 -64.6224 27.5952  255 255 255
-53.976 47.7434 -34.721  255 255 255
-52.4876 47.7949 -35.4289  255 255 255
-54.9686 -65.6448 28.4805  255 255 255
-53.6414 -61.0466 31.3495  255 255 255
-49.7505 17.9593 24.0048  255 255 255
-50.5161 14.9664 18.4931  255 255 255
-53.1801 -37.1339 29.5384  255 255 255
-54.2989 17.2193 22.7167  255 255 255
-55.4289 -13.7697 30.0766  255 255 255
-55.4848 13.7303 22.5162  255 255 255
-56.9732 -26.3837 29.8084  255 255 255
-56.9452 -38.3163 29.7034  255 255 255
-56.7166 -64.6079 44.2001  255 255 255
-57.0118 -62.3073 45.2003  255 255 255
-58.2195 -30.4894 29.9016  255 255 255
-59.1006 -36.1384 31.3422  255 255 255
-59.8378 -27.1469 32.2581  255 255 255
-58.3055 -25.7079 40.3663  255 255 255
-61.5484 -31.6271 33.5166  255 255 255
-61.8238 -33.2909 32.5516  255 255 255
-63.8157 -32.496 33.1363  255 255 255
-59.9221 -54.3855 46.6206  255 255 255
-61.6281 -27.0329 36.4889  255 255 255
-63.1613 -26.3237 37.8176  255 255 255
-61.7674 -52.4691 46.1236  255 255 255
-61.874 -25.5246 46.5694  255 255 255
-64.2456 -36.217 33.8875  255 255 255
-61.5601 -52.4503 45.6503  255 255 255
-61.7682 -53.9343 44.5085  255 255 255
-66.0821 -32.3964 32.5689  255 255 255
-64.6954 -35.84 33.8744  255 255 255
-64.1873 -56.5082 46.6709  255 255 255
-66.0302 -28.4096 33.3352  255 255 255
-66.682 -41.5161 34.0226  255 255 255
-66.1724 -34.554 33.7021  255 255 255
-66.6831 -33.2685 32.9111  255 255 255
-67.7015 -40.848 33.8634  255 255 255
-64.1463 -55.6253 46.3657  255 255 255
-62.9098 -24.8676 53.3387  255 255 255
-65.0807 -55.0645 47.0005  255 255 255
-67.6012 -31.921 33.4627  255 255 255
-65.2727 -26.1576 45.3483  255 255 255
-64.4104 -25.8171 57.8809  255 255 255
-63.0258 -25.7156 57.3474  255 255 255
-69.1589 -37.3864 33.9931  255 255 255
-68.9309 -39.8863 34.4652  255 255 255
-66.6281 -55.4245 46.8729  255 255 255
-71.3767 -29.5276 33.447  255 255 255
-67.0911 -52.5599 47.9987  255 255 255
-72.3189 -36.073 35.4831  255 255 255
-72.1718 -26.3067 33.2469  255 255 255
-72.4286 -26.6408 34.5888  255 255 255
-70.9634 -37.5453 34.7389  255 255 255
-67.7428 -25.366 54.567  255 255 255
-68.6759 -51.6986 48.496  255 255 255
-71.5256 -33.9197 34.0301  255 255 255
-72.9803 -25.5578 34.5478  255 255 255
-72.7366 -30.1558 35.9935  255 255 255
-72.3357 -28.5345 35.4663  255 255 255
-74.0097 -29.4087 35.2032  255 255 255
-67.3587 -28.262 69.5964  255 255 255
120.952 -34.4231 -84.5506  255 255 255
106.513 -25.4331 -80.1035  255 255 255
117.685 -5.28867 -90.9239  255 255 255
105.828 -12.2376 -76.3017  255 255 255
120.881 27.601 -79.9266  255 255 255
52.7892 -73.513 -23.5059  255 255 255
106.617 6.94819 -78.5522  255 255 255
104.186 4.79328 -74.9702  255 255 255
123.965 44.5854 -91.5533  255 255 255
105.061 18.6078 -77.0934  255 255 255
46.2393 -52.0037 -2.73135  255 255 255
105.028 19.9129 -78.2335  255 255 255
46.4501 -68.7118 -21.0668  255 255 255
36.5578 -59.9797 2.18271  255 255 255
46.6849 -75.3993 -30.6127  255 255 255
105.579 33.5106 -79.265  255 255 255
45.1592 -66.7203 -22.7036  255 255 255
45.8073 -66.4401 -22.7835  255 255 255
49.5231 -26.4748 -3.72359  255 255 255
46.922 -74.8571 -33.5992  255 255 255
43.0541 -34.7871 -0.448876  255 255 255
47.2876 -22.6947 -0.826444  255 255 255
41.6867 -37.3962 -1.73873  255 255 255
43.7955 -69.106 -29.8124  255 255 255
46.183 -16.2262 -3.83905  255 255 255
40.4086 -66.7548 -29.2232  255 255 255
42.5067 -67.1465 -33.5877  255 255 255
37.0362 -30.3366 0.205268  255 255 255
34.5497 -35.8144 0.520942  255 255 255
33.7018 -37.1272 0.424937  255 255 255
38.7412 -19.3649 1.07747  255 255 255
38.2413 -24.6659 -1.00877  255 255 255
42.2122 -13.9256 -2.71876  255 255 255
32.8277 -40.6029 -4.67993  255 255 255
46.9458 6.82751 -3.62298  255 255 255
51.2067 15.9905 -6.41829  255 255 255
32.0032 -33.4012 2.00624  255 255 255
20.9873 -58.851 8.0287  255 255 255
30.2699 -32.5938 1.62276  255 255 255
19.2547 -64.8185 7.76803  255 255 255
29.7474 -66.9604 -21.595  255 255 255
39.7707 -0.874985 -0.799652  255 255 255
26.6229 -37.9193 3.84937  255 255 255
19.0026 -60.6286 6.26153  255 255 255
27.8323 -64.2268 -18.4503  255 255 255
26.8153 -62.4894 -18.6358  255 255 255
24.9835 -39.6222 2.73241  255 255 255
34.8155 -9.46678 1.64238  255 255 255
34.3938 -8.59486 0.0763513  255 255 255
32.165 -67.8434 -40.9494  255 255 255
33.4652 -10.2685 -0.281358  255 255 255
24.7869 -39.1054 0.627349  255 255 255
34.5211 -69.2594 -51.1327  255 255 255
34.9146 -67.5917 -53.8  255 255 255
31.5225 -68.3704 -48.6589  255 255 255
18.2077 -63.2965 -14.0168  255 255 255
13.85 -57.2812 5.24179  255 255 255
35.5292 18.9719 0.325002  255 255 255
9.76344 -65.3778 9.00619  255 255 255
33.2398 13.612 -3.47525  255 255 255
17.9321 -66.5085 -19.4953  255 255 255
32.9057 13.0506 -0.948423  255 255 255
52.315 9.18025 -67.5066  255 255 255
8.05652 -59.5774 10.4199  255 255 255
32.0794 14.3329 -8.09848  255 255 255
31.7112 14.2616 -8.09099  255 255 255
46.9991 11.6801 -60.3158  255 255 255
35.4784 -21.0777 -56.2208  255 255 255
12.1312 -39.9468 5.89226  255 255 255
17.1354 -67.7257 -40.5173  255 255 255
26.8684 12.8583 -3.0958  255 255 255
42.4795 13.942 -61.8089  255 255 255
31.4149 -24.117 -53.0404  255 255 255
31.0724 38.3789 -2.74494  255 255 255
32.7988 39.3949 -6.35542  255 255 255
29.7395 41.1698 -0.198974  255 255 255
48.8761 43.7426 -63.4784  255 255 255
17.5493 -14.7312 2.6076  255 255 255
29.336 39.6427 -4.92658  255 255 255
21.3876 17.3902 3.43161  255 255 255
42.9322 66.7292 -40.9387  255 255 255
19.6787 18.2131 2.96188  255 255 255
30.2316 1.96584 -54.9008  255 255 255
45.1724 48.4671 -66.4306  255 255 255
41.4697 65.7597 -41.4941  255 255 255
24.4647 38.7428 -2.5094  255 255 255
-3.83458 -62.8384 15.7611  255 255 255
-5.38405 -57.7858 13.2447  255 255 255
33.0121 65.2932 -35.6603  255 255 255
19.7142 40.6095 -2.49815  255 255 255
31.8007 64.6773 -41.3959  255 255 255
9.11601 15.4815 4.26188  255 255 255
28.6217 47.9687 -58.3022  255 255 255
26.0141 65.1181 -36.8207  255 255 255
1.21597 -11.0896 11.4216  255 255 255
12.4079 42.9259 3.01136  255 255 255
17.5316 12.5123 -55.8233  255 255 255
27.0535 49.1825 -60.4369  255 255 255
-10.1705 -58.3329 17.3576  255 255 255
-7.05647 -65.1072 -11.5413  255 255 255
6.12299 15.1438 3.33884  255 255 255
11.8404 41.2851 2.26268  255 255 255
12.8971 42.1923 2.11651  255 255 255
-3.78424 -64.2811 -35.9156  255 255 255
3.90638 -70.4532 -90.1739  255 255 255
7.79343 40.5845 4.93257  255 255 255
1.6597 -70.4977 -93.7298  255 255 255
-3.98009 -65.4981 -61.9565  255 255 255
-11.2915 -60.7152 -9.6776  255 255 255
-11.2556 -59.6247 -8.68843  255 255 255
17.222 56.7127 -53.9869  255 255 255
-2.15649 -69.4392 -85.9356  255 255 255
1.49947 42.898 7.64791  255 255 255
-9.31284 -9.34045 13.5525  255 255 255
-15.5599 -62.5248 -5.63876  255 255 255
-16.2487 -62.7603 -6.94513  255 255 255
-0.726342 13.471 -45.7214  255 255 255
-3.43295 38.6336 4.95006  255 255 255
-5.26936 42.6117 8.59019  255 255 255
-4.58349 43.0883 8.4472  255 255 255
-16.2521 -68.1021 -58.1364  255 255 255
-5.57702 38.9827 6.20887  255 255 255
-20.8591 -39.0774 17.7151  255 255 255
-17.7053 -66.8564 -60.5498  255 255 255
-21.8449 -38.6663 17.3702  255 255 255
-23.1551 -60.3495 -4.49908  255 255 255
-26.6339 -59.7831 20.5428  255 255 255
-25.4853 -60.6606 -4.02365  255 255 255
-29.18 -63.045 22.4005  255 255 255
-29.4378 -60.208 21.9503  255 255 255
-17.7091 18.3988 14.2153  255 255 255
-29.83 -59.5016 21.0883  255 255 255
-23.9017 -12.0252 16.8065  255 255 255
-28.0801 -38.2839 18.5628  255 255 255
-34.1808 -53.1413 17.8381  255 255 255
-33.6906 -38.3775 18.536  255 255 255
-33.2225 -29.7746 19.4985  255 255 255
-35.2719 -38.1329 19.6579  255 255 255
-36.2096 -36.3175 22.4998  255 255 255
-38.4183 -65.3657 -52.9169  255 255 255
-30.6044 21.1278 18.7936  255 255 255
-42.3271 -64.5984 -22.3484  255 255 255
-41.6221 -62.7137 1.61133  255 255 255
-42.1629 -63.9284 -24.6992  255 255 255
-37.3352 -32.678 23.5492  255 255 255
-42.7537 -66.0975 -51.3559  255 255 255
-31.5539 64.5233 -16.2822  255 255 255
-45.8038 -65.5665 -25.8739  255 255 255
-45.9278 -66.5837 2.39441  255 255 255
-43.3954 -37.1232 24.2664  255 255 255
-40.2993 41.7596 -33.9193  255 255 255
-50.4087 -64.6782 -47.8053  255 255 255
-48.4885 -59.6098 27.4788  255 255 255
-56.0222 -67.8617 -69.2982  255 255 255
-46.0054 49.4413 -37.725  255 255 255
-44.9035 46.731 -33.6188  255 255 255
-46.048 42.6884 -36.0623  255 255 255
-48.6603 11.8004 -32.2123  255 255 255
-47.9983 12.2137 -31.9211  255 255 255
-48.8253 -38.6584 24.1296  255 255 255
-54.6312 -64.4242 -26.0909  255 255 255
-47.1403 -12.3377 23.3573  255 255 255
-56.8259 -63.3602 -46.1406  255 255 255
-46.5648 22.385 21.8775  255 255 255
-46.9059 15.3484 20.4751  255 255 255
-47.0243 19.9634 22.5776  255 255 255
-50.4599 -37.325 26.2531  255 255 255
-52.245 -59.5835 30.3845  255 255 255
-56.0169 -19.4303 -34.9686  255 255 255
-53.6978 -64.5651 26.4689  255 255 255
-48.1882 16.7312 21.8406  255 255 255
-52.6059 -38.7237 26.4761  255 255 255
-54.3335 46.8175 -33.2512  255 255 255
-51.6453 -10.3252 25.7969  255 255 255
-53.9304 -63.3384 44.1618  255 255 255
-57.0685 -40.3329 27.138  255 255 255
-58.0073 -40.0079 25.6133  255 255 255
-59.7302 -38.2258 32.1517  255 255 255
-60.9555 -5.44388 33.218  255 255 255
-61.5676 -22.3928 35.7122  255 255 255
-62.2657 -26.3941 43.592  255 255 255
-62.7432 -26.0336 39.8965  255 255 255
-63.7624 -26.0675 40.625  255 255 255
-61.9768 -62.4269 47.8597  255 255 255
-63.3793 -26.6599 41.7504  255 255 255
-65.0947 -26.9799 35.9805  255 255 255
-63.0353 -56.157 46.1997  255 255 255
-65.8255 -40.3853 33.6708  255 255 255
-66.5247 -38.4884 33.8656  255 255 255
-63.6709 -57.2375 45.4773  255 255 255
-64.1393 -25.4785 39.4469  255 255 255
-63.5425 -56.3345 47.1469  255 255 255
-66.7436 -40.3347 34.3919  255 255 255
-65.1282 -25.591 38.1945  255 255 255
-63.8162 -62.7343 47.8731  255 255 255
-63.1038 -25.6957 49.2693  255 255 255
-63.5255 -53.8735 47.3304  255 255 255
-64.8129 -28.652 39.8158  255 255 255
-67.9915 -34.8 33.3685  255 255 255
-64.9306 -25.0196 48.6468  255 255 255
-67.1919 -40.3704 33.4955  255 255 255
-63.0909 -24.9934 53.0354  255 255 255
-64.734 -55.4409 47.2606  255 255 255
-68.4244 -29.5903 34.522  255 255 255
-69.0865 -36.5502 34.6458  255 255 255
-69.6321 -40.6059 35.6146  255 255 255
-70.3018 -39.1164 35.3678  255 255 255
-69.6044 -29.8048 33.8927  255 255 255
-70.2512 -28.6805 34.4199  255 255 255
-70.0192 -41.833 35.272  255 255 255
-71.7539 -37.8051 34.604  255 255 255
-65.417 -25.7691 63.2642  255 255 255
-71.1779 -28.1977 35.2543  255 255 255
-66.4178 -25.9137 62.4159  255 255 255
-65.1899 -25.6062 66.2381  255 255 255
-75.5097 -23.1785 35.8223  255 255 255
-76.7262 -21.0144 34.9786  255 255 255
-77.2968 -19.7347 34.7839  255 255 255
-77.0464 -21.1807 35.614  255 255 255
-77.1917 -23.3013 34.1055  255 255 255
-77.9727 -22.1241 34.9334  255 255 255
106.781 -44.1266 -76.8978  255 255 255
109.503 -41.7449 -78.6088  255 255 255
106.247 -16.3747 -74.1705  255 255 255
107.354 -6.42941 -79.3254  255 255 255
109.783 0.73533 -84.2724  255 255 255
124.326 37.469 -87.5924  255 255 255
38.5336 -64.746 4.26  255 255 255
48.9855 -71.0514 -21.5112  255 255 255
104.378 12.7514 -77.1585  255 255 255
47.9202 -69.52 -18.517  255 255 255
42.1547 -57.9825 -0.0545945  255 255 255
109.62 22.5136 -81.6632  255 255 255
113.207 24.2756 -87.5804  255 255 255
44.035 -72.2515 -25.3032  255 255 255
39.5248 -54.612 -2.49157  255 255 255
34.5467 -61.0514 2.78781  255 255 255
46.5692 -32.1399 -0.957527  255 255 255
31.9889 -62.7738 5.30329  255 255 255
31.6282 -64.807 3.10721  255 255 255
32.7181 -58.2593 4.70495  255 255 255
42.8681 -67.4395 -24.3219  255 255 255
46.6815 -24.4417 -1.4812  255 255 255
32.3449 -58.3562 3.6989  255 255 255
40.7142 -30.4641 0.789231  255 255 255
29.9472 -64.0781 0.169984  255 255 255
40.7859 -33.4238 -2.56144  255 255 255
40.8559 -66.1135 -28.826  255 255 255
37.1387 -36.0117 1.93385  255 255 255
33.7079 -65.5081 -14.6563  255 255 255
32.6718 -32.9947 1.70119  255 255 255
29.6289 -38.2047 3.24459  255 255 255
36.152 -68.1579 -39.2901  255 255 255
30.2386 -33.4127 1.42381  255 255 255
49.7466 22.0855 -5.09919  255 255 255
35.7957 -20.91 -5.05847  255 255 255
35.1927 -19.3876 -5.90009  255 255 255
34.7698 -69.1133 -45.1315  255 255 255
41.6751 11.986 -2.05738  255 255 255
32.4541 -12.2698 1.51633  255 255 255
24.5436 -34.3561 3.22375  255 255 255
43.7689 -35.9502 -51.8519  255 255 255
45.217 -32.284 -56.3581  255 255 255
21.9032 -64.3883 -14.482  255 255 255
31.0135 -12.3625 0.611659  255 255 255
39.9277 15.3527 -3.42706  255 255 255
42.57 29.9604 -3.24435  255 255 255
22.4901 -65.6166 -23.2765  255 255 255
53.7748 3.54938 -64.5623  255 255 255
21.5677 -60.3186 -18.411  255 255 255
27.0891 -8.37791 2.8586  255 255 255
10.6309 -59.6156 8.56743  255 255 255
36.4228 36.9944 -2.40877  255 255 255
31.4158 17.8351 0.615737  255 255 255
22.9659 -68.3167 -44.3863  255 255 255
49.7253 14.636 -63.5308  255 255 255
38.5459 44.5277 -1.2336  255 255 255
12.4015 -38.9975 8.6206  255 255 255
28.2434 -36.5599 -46.5182  255 255 255
19.8762 -67.2754 -43.9898  255 255 255
12.2021 -33.0438 8.67883  255 255 255
17.4261 -68.7208 -46.7581  255 255 255
17.8415 -62.7237 -42.0416  255 255 255
26.6825 19.1695 0.666472  255 255 255
24.8195 14.303 -2.06876  255 255 255
48.4973 65.528 -48.3952  255 255 255
14.567 -7.99911 6.49584  255 255 255
45.5685 64.6379 -45.0827  255 255 255
13.5752 -63.7714 -42.1288  255 255 255
49.8044 57.2473 -66.9631  255 255 255
13.8298 -68.1366 -44.5845  255 255 255
28.775 41.1584 -7.91323  255 255 255
25.198 42.1876 1.55623  255 255 255
43.7976 51.7876 -67.3243  255 255 255
41.7741 48.3926 -64.8567  255 255 255
2.0262 -63.3819 -13.02  255 255 255
12.468 -70.1187 -67.1528  255 255 255
5.87936 -64.3343 -38.2419  255 255 255
14.0692 -32.4844 -52.0389  255 255 255
-2.15056 -62.355 -11.2175  255 255 255
28.7304 47.4955 -55.4182  255 255 255
20.043 4.90338 -54.5464  255 255 255
6.9337 -67.6512 -65.6183  255 255 255
13.1624 -20.8611 -50.1531  255 255 255
12.6794 36.6535 3.33238  255 255 255
16.7305 16.6024 -51.1652  255 255 255
0.420163 -68.9781 -56.7091  255 255 255
0.113399 -7.8411 10.6222  255 255 255
8.09098 33.7537 7.81044  255 255 255
22.8374 47.8942 -58.5478  255 255 255
21.6351 44.3777 -55.9039  255 255 255
-9.12561 -61.1964 -12.8692  255 255 255
-9.12101 -38.4254 14.5184  255 255 255
6.21676 36.4811 5.34606  255 255 255
4.18463 -22.5747 -46.0129  255 255 255
-10.4085 -39.551 13.6182  255 255 255
4.53564 39.7 2.34003  255 255 255
14.9468 44.3547 -51.3443  255 255 255
5.15601 40.766 1.33796  255 255 255
14.6479 46.7913 -55.567  255 255 255
16.7104 56.2303 -54.8751  255 255 255
11.5914 45.1835 -51.619  255 255 255
-11.0477 -11.109 14.4032  255 255 255
-21.3617 -57.8422 18.4357  255 255 255
7.40295 53.5093 -57.3167  255 255 255
6.76672 55.1673 -55.6347  255 255 255
-14.1877 -67.4195 -60.2641  255 255 255
-4.76433 40.4611 10.7841  255 255 255
-5.92168 39.4633 5.76563  255 255 255
-22.5479 -57.7301 20.9475  255 255 255
1.77562 45.493 -51.4969  255 255 255
-23.4466 -58.3787 19.1487  255 255 255
-10.1611 38.3418 13.0462  255 255 255
-26.1473 -67.4444 -29.4232  255 255 255
-25.1286 -66.1382 -32.3074  255 255 255
-31.0649 -62.1233 22.3976  255 255 255
-31.723 -62.8094 22.0808  255 255 255
-27.7218 -34.8869 20.6115  255 255 255
-29.0292 -67.7242 -57.6436  255 255 255
-21.4505 20.1348 16.6243  255 255 255
-22.5951 19.8251 16.9489  255 255 255
-33.5181 -57.4479 23.0398  255 255 255
-33.2596 -64.3173 -2.00522  255 255 255
-31.8136 -68.5625 -71.7076  255 255 255
-23.947 12.1042 -41.9193  255 255 255
-36.2738 -66.6822 -54.3237  255 255 255
-32.0138 -25.2939 -38.9911  255 255 255
-37.0667 -54.6429 19.1687  255 255 255
-37.6401 -53.4681 19.0282  255 255 255
-36.7121 -35.4125 23.3964  255 255 255
-40.7955 -63.5229 -1.27674  255 255 255
-39.7853 -63.4113 -0.853769  255 255 255
-36.458 -20.1769 -38.0455  255 255 255
-33.0724 13.3548 -37.1922  255 255 255
-41.2457 -37.2181 20.938  255 255 255
-45.57 -64.6518 -23.5281  255 255 255
-46.1316 -65.333 -49.9158  255 255 255
-33.4658 54.2411 -39.5865  255 255 255
-45.6483 -65.2898 -25.6697  255 255 255
-46.4417 -64.901 -24.8136  255 255 255
-45.6233 -65.9416 -52.4696  255 255 255
-39.4741 -11.5671 23.7197  255 255 255
-39.4066 12.6618 -39.0325  255 255 255
-41.4433 -20.8736 -33.0673  255 255 255
-42.4376 -8.13417 23.1886  255 255 255
-47.4461 -65.2865 -23.1107  255 255 255
-48.2928 -64.4951 -24.6202  255 255 255
-44.4 -38.8934 23.3525  255 255 255
-41.4355 20.2195 21.9689  255 255 255
-43.4166 52.5096 -36.7678  255 255 255
-50.3322 -21.3765 -32.5875  255 255 255
-46.7514 51.0635 -34.3456  255 255 255
-49.2642 -36.2957 26.4928  255 255 255
-53.2606 -28.1214 -33.0034  255 255 255
-50.9685 8.80851 -39.395  255 255 255
-49.6677 -35.3283 27.278  255 255 255
-53.1492 -63.7651 -1.46599  255 255 255
-51.3707 -35.3985 22.8948  255 255 255
-48.1099 -45.3622 58.6821  255 255 255
-52.72 -64.7413 26.4913  255 255 255
-49.8718 -38.3008 27.8525  255 255 255
-52.1011 -39.3279 24.8402  255 255 255
-55.7421 -24.8437 -30.6162  255 255 255
-52.5608 48.073 -34.1417  255 255 255
-53.3111 48.5296 -34.304  255 255 255
-51.2582 15.365 16.9245  255 255 255
-53.472 -8.56728 27.9471  255 255 255
-56.2658 -60.0899 42.3321  255 255 255
-57.8874 6.25264 28.4327  255 255 255
-57.3685 5.20177 31.0912  255 255 255
-59.0425 -21.0637 35.6437  255 255 255
-58.2777 -16.7491 33.8098  255 255 255
-58.8564 0.0950024 33.7305  255 255 255
-58.5624 10.7911 37.0757  255 255 255
-60.0168 -26.2599 37.8614  255 255 255
-60.5199 -28.8423 41.1053  255 255 255
-63.1184 -34.8855 32.966  255 255 255
-62.7739 -29.291 31.9753  255 255 255
-60.7806 -58.8595 46.5263  255 255 255
-60.158 -59.107 46.8912  255 255 255
-61.0641 -27.5925 36.6189  255 255 255
-60.703 -29.436 46.6894  255 255 255
-59.6388 -23.4882 50.6089  255 255 255
-64.3533 -27.0578 35.7162  255 255 255
-63.7447 -25.3341 41.3525  255 255 255
-65.3314 -40.2878 33.3922  255 255 255
-61.2172 -23.3125 53.0363  255 255 255
-62.9159 -55.5991 46.2726  255 255 255
-63.5909 -53.1568 46.1864  255 255 255
-62.8552 -26.2043 48.7055  255 255 255
-65.7829 -27.4505 37.7659  255 255 255
-66.0898 -62.3282 39.8086  255 255 255
-61.2655 -16.637 55.091  255 255 255
-64.266 -27.482 40.6269  255 255 255
-64.4042 -27.278 44.1863  255 255 255
-64.5614 -25.4494 42.1039  255 255 255
-66.5801 -32.1 33.4417  255 255 255
-67.6433 -65.8376 34.0113  255 255 255
-67.5895 -37.5808 34.943  255 255 255
-63.9348 -18.2631 57.2215  255 255 255
-68.7097 -25.4959 33.9339  255 255 255
-68.2603 -25.0213 33.1638  255 255 255
-64.3923 -25.2668 52.8799  255 255 255
-68.8703 -28.9191 34.1892  255 255 255
-63.8142 -24.7782 57.3937  255 255 255
-70.5427 -32.6377 31.3325  255 255 255
-71.4628 -32.4697 31.5318  255 255 255
-66.1992 -25.7227 55.3445  255 255 255
-65.2342 -25.1934 54.5482  255 255 255
-72.2267 -40.8389 35.9376  255 255 255
-68.173 -64.1127 47.7163  255 255 255
-71.5724 -29.246 34.9996  255 255 255
-72.1218 -21.8742 32.7606  255 255 255
-72.8996 -31.3698 33.9299  255 255 255
-65.7256 -26.0777 62.8677  255 255 255
-72.6858 -35.7526 35.4642  255 255 255
-68.4942 -25.2062 57.3047  255 255 255
-74.0513 -24.5321 33.6951  255 255 255
-76.5499 -14.8719 33.8744  255 255 255
109.227 -32.125 -78.7606  255 255 255
51.4849 -65.3203 -8.01062  255 255 255
50.0614 -60.3803 -3.20517  255 255 255
112.915 3.14972 -78.6965  255 255 255
51.4917 -47.8884 -5.99062  255 255 255
114.955 17.3749 -81.0987  255 255 255
50.8278 -43.0588 -2.63897  255 255 255
43.2046 -47.9159 4.62538  255 255 255
46.3888 -65.3553 -14.2113  255 255 255
113.075 42.3194 -78.9291  255 255 255
46.4445 -70.3066 -20.9496  255 255 255
43.1601 -45.2322 -0.456583  255 255 255
35.8904 -66.0041 -2.072  255 255 255
34.163 -62.5534 2.47261  255 255 255
43.1852 -69.2681 -24.8812  255 255 255
37.6348 -49.177 0.869518  255 255 255
100.731 37.9523 -80.7441  255 255 255
41.1905 -29.8056 -0.155026  255 255 255
30.1267 -59.4698 2.74806  255 255 255
40.4254 -67.2504 -37.0932  255 255 255
51.8799 12.0134 -8.05504  255 255 255
50.5716 14.949 -6.43998  255 255 255
31.6609 -66.5701 -17.0555  255 255 255
29.4343 -62.4021 -19  255 255 255
29.4877 -63.3856 -18.4799  255 255 255
33.9712 -68.2642 -39.1517  255 255 255
28.0832 -63.2124 -18.8635  255 255 255
27.6515 -60.9393 -18.8421  255 255 255
36.4348 -71.4981 -52.6202  255 255 255
35.6052 -69.7541 -49.0939  255 255 255
33.8159 -67.9997 -47.0754  255 255 255
24.3437 -67.523 -25.755  255 255 255
14.0575 -60.0826 8.37011  255 255 255
11.9119 -65.0069 7.49006  255 255 255
43.7983 -23.823 -59.426  255 255 255
19.8022 -35.3779 6.85789  255 255 255
43.2583 40.7242 -2.51826  255 255 255
18.0375 -62.2624 -17.9804  255 255 255
15.2221 -37.3203 7.94807  255 255 255
30.9518 15.9631 -10.3295  255 255 255
55.728 46.3718 -67.8354  255 255 255
45.1213 15.718 -60.8027  255 255 255
25.6415 -72.6593 -71.0173  255 255 255
52.0182 39.3009 -66.0154  255 255 255
51.8095 39.4208 -64.7342  255 255 255
44.698 17.9617 -59.6575  255 255 255
18.2999 -62.6857 -42.2067  255 255 255
30.7557 -22.6598 -53.5074  255 255 255
30.2536 42.6437 0.44864  255 255 255
48.4276 47.8004 -64.5294  255 255 255
22.269 -71.4574 -69.2501  255 255 255
28.3709 38.3531 -5.22737  255 255 255
6.51631 -39.4326 7.98838  255 255 255
6.56621 -65.1378 -18.3067  255 255 255
21.1962 -73.0433 -77.7571  255 255 255
47.2757 57.0538 -67.5361  255 255 255
26.2661 47.1103 -0.143059  255 255 255
9.93306 -62.641 -42.2091  255 255 255
38.0771 65.9657 -38.2192  255 255 255
19.7427 -72.5982 -96.876  255 255 255
35.1122 60.7924 -32.0386  255 255 255
-3.23646 -58.1625 13.8088  255 255 255
5.28916 -10.8172 9.53508  255 255 255
15.276 37.9523 2.57866  255 255 255
12.5392 -24.9222 -51.945  255 255 255
14.8153 43.1313 2.9285  255 255 255
19.7181 13.2064 -51.8274  255 255 255
-4.06694 -38.6471 12.6315  255 255 255
-3.07522 -11.8704 11.975  255 255 255
-15.5329 -59.4811 16.7256  255 255 255
1.18507 -69.4889 -84.7092  255 255 255
0.0566255 -67.1874 -84.0293  255 255 255
-12.1273 -37.333 15.3662  255 255 255
1.20542 -20.6865 -47.1982  255 255 255
0.920357 -20.7278 -47.9541  255 255 255
7.78436 15.4313 -50.1551  255 255 255
-0.798546 -20.5336 -48.2609  255 255 255
-1.31076 -22.1228 -48.8782  255 255 255
-2.40331 -28.5338 -49.2722  255 255 255
-9.74571 -66.8306 -60.1172  255 255 255
-19.9239 -58.865 19.3687  255 255 255
9.56252 59.3706 -55.8641  255 255 255
-17.9005 -62.9555 -6.39991  255 255 255
-1.39573 7.75145 -47.5618  255 255 255
-19.3147 -61.2306 -5.69912  255 255 255
-21.5956 -62.035 -4.84677  255 255 255
-23.4767 -59.3371 20.6516  255 255 255
-9.34967 -6.36035 -33.0548  255 255 255
-15.0307 -69.8398 -87.3834  255 255 255
-22.4005 -37.2534 17.2455  255 255 255
-25.8516 -61.5458 -3.62455  255 255 255
-23.3906 -66.2716 -31.8639  255 255 255
-6.05974 57.2528 -52.181  255 255 255
-8.21953 45.0116 -46.7948  255 255 255
-28.9149 -58.1247 23.1614  255 255 255
-16.1982 40.7315 12.9861  255 255 255
-27.9566 -39.7732 17.1326  255 255 255
-27.1025 -68.8884 -73.1034  255 255 255
-19.6548 11.8335 -43.5931  255 255 255
-30.4206 -38.9676 19.7131  255 255 255
-25.3522 18.9521 16.8572  255 255 255
-31.5893 -33.3183 23.1822  255 255 255
-34.1009 -67.0596 -54.4502  255 255 255
-33.9484 -67.062 -77.0414  255 255 255
-31.8077 -8.63356 20.4412  255 255 255
-32.5593 -12.2478 20.8699  255 255 255
-37.926 -55.5893 20.4913  255 255 255
-40.6059 -64.9532 -53.2861  255 255 255
-40.8226 -68.2423 -76.2143  255 255 255
-35.8434 -10.2149 22.2595  255 255 255
-35.7252 14.969 -35.9262  255 255 255
-37.0565 13.0492 -36.494  255 255 255
-36.9873 44.8424 -39.3073  255 255 255
-39.8747 13.3726 -38.4482  255 255 255
-40.1395 9.43048 -36.9028  255 255 255
-40.5385 11.1268 -34.8318  255 255 255
-39.7894 10.3494 -34.7734  255 255 255
-43.734 -21.3723 -32.4294  255 255 255
-43.1712 5.49876 -33.9771  255 255 255
-39.8057 22.7098 17.0924  255 255 255
-45.5654 -36.6501 23.3709  255 255 255
-44.7003 11.9779 -33.106  255 255 255
-47.067 18.3904 -33.4371  255 255 255
-49.0387 -62.9234 24.5296  255 255 255
-45.8614 15.4926 18.17  255 255 255
-51.7039 6.59877 -37.048  255 255 255
-49.4526 -8.42021 24.3954  255 255 255
-49.0387 21.7241 24.006  255 255 255
-50.1805 -10.2664 25.3907  255 255 255
-52.3858 -39.7358 23.7645  255 255 255
-53.6483 -12.7375 18.0065  255 255 255
-54.3249 18.4729 23.1971  255 255 255
-68.2424 -66.89 -45.0463  255 255 255
-58.6351 -25.616 40.3699  255 255 255
-59.4537 -59.6864 39.3215  255 255 255
-60.0864 -27.1305 39.2164  255 255 255
-58.5965 -10.7118 42.3458  255 255 255
-62.847 -63.0844 30.3588  255 255 255
-59.8189 10.3023 42.8958  255 255 255
-64.7559 -66.0606 27.3263  255 255 255
-61.099 -11.4593 45.6525  255 255 255
-64.4144 -40.5216 33.7789  255 255 255
-61.1483 -26.0071 44.3061  255 255 255
-63.2125 -27.0952 37.1497  255 255 255
-65.999 -36.5386 33.8509  255 255 255
-65.548 -38.1789 33.6827  255 255 255
-63.533 -25.4377 42.7226  255 255 255
-63.1843 -24.1441 58.5206  255 255 255
-64.7169 -25.5099 55.3322  255 255 255
-68.5743 -55.6109 36.8512  255 255 255
-65.1539 -25.3306 58.0397  255 255 255
-63.3883 -24.1407 59.9484  255 255 255
-67.631 -57.9664 47.6878  255 255 255
-66.5193 -25.0678 51.3485  255 255 255
-65.035 -25.0522 58.149  255 255 255
-65.4613 -25.214 57.0384  255 255 255
-70.9092 -36.2705 34.7532  255 255 255
-71.7321 -35.9929 35.4877  255 255 255
-72.6466 -25.3925 33.8449  255 255 255
-73.7832 -22.3643 34.9348  255 255 255
-75.579 -24.7066 34.6259  255 255 255
-75.6552 -24.0618 35.5357  255 255 255
-76.9739 -13.4573 34.956  255 255 255
48.9078 -66.2357 -10.0434  255 255 255
53.1772 -71.4371 -22.7427  255 255 255
50.0509 -37.6931 -0.811027  255 255 255
34.6829 -66.1992 -5.57446  255 255 255
35.3947 -66.7536 -4.78992  255 255 255
106.502 52.0258 -83.3695  255 255 255
30.672 -59.2387 4.14624  255 255 255
29.7733 -59.4724 5.47415  255 255 255
37.8248 -67.067 -24.8865  255 255 255
23.7663 -61.4043 6.18087  255 255 255
22.7148 -63.3687 6.93755  255 255 255
18.9339 -61.0268 8.50717  255 255 255
35.7062 -21.2477 -5.36993  255 255 255
32.3897 -67.9292 -33.7395  255 255 255
31.8035 -68.3926 -31.8022  255 255 255
33.8556 -10.6906 0.978698  255 255 255
26.0986 -63.7092 -20.2318  255 255 255
49.7714 -22.7123 -61.765  255 255 255
27.7568 -11.0827 2.32687  255 255 255
27.6119 -9.42859 1.93802  255 255 255
55.0251 10.6087 -67.4936  255 255 255
50.9512 12.5879 -62.1678  255 255 255
16.5669 -30.8345 5.42558  255 255 255
37.2387 -27.1005 -57.7396  255 255 255
23.9763 -70.3061 -57.1214  255 255 255
18.7135 -68.9993 -47.9014  255 255 255
33.4489 -26.4372 -54.118  255 255 255
29.6459 -24.3894 -49.7626  255 255 255
19.3601 -64.2536 -43.5112  255 255 255
22.0176 -70.3375 -60.3622  255 255 255
21.0091 -71.0139 -62.644  255 255 255
47.5869 42.6075 -62.9657  255 255 255
19.8876 -71.3392 -62.7731  255 255 255
25.0657 -30.9747 -55.1138  255 255 255
49.6685 57.899 -68.5764  255 255 255
50.2681 57.0149 -69.0635  255 255 255
15.0968 -64.2783 -42.2781  255 255 255
4.84383 -39.2637 8.26226  255 255 255
24.959 -22.5201 -50.4491  255 255 255
21.1669 41.2091 -3.07618  255 255 255
6.824 -65.6825 -39.486  255 255 255
7.37552 -12.0005 4.87496  255 255 255
15.4549 40.8397 0.119374  255 255 255
7.63965 15.1417 2.49775  255 255 255
27.8193 52.44 -58.8707  255 255 255
12.1857 38.7874 2.1705  255 255 255
4.57095 -66.8848 -66.333  255 255 255
11.6327 40.6532 0.879059  255 255 255
23.6108 48.7095 -59.2663  255 255 255
14.0857 14.1836 -52.7056  255 255 255
15.1297 42.5877 -54.2785  255 255 255
-13.1427 -59.8463 -7.9052  255 255 255
12.1457 45.5373 -54.0604  255 255 255
3.35341 10.2044 -47.342  255 255 255
-11.3802 15.7256 12.0543  255 255 255
-22.8437 -59.8051 -4.2155  255 255 255
-12.3087 39.6222 7.36684  255 255 255
-25.5701 -65.9812 -29.5468  255 255 255
-29.3997 -63.7216 -2.46748  255 255 255
-27.8006 -69.3158 -81.3225  255 255 255
-27.9156 -65.6239 -53.7734  255 255 255
-22.7414 20.7607 16.633  255 255 255
-27.924 19.8314 17.5634  255 255 255
-32.4397 -17.344 -36.3238  255 255 255
-28.1784 51.1048 -46.8837  255 255 255
-36.7524 -18.5129 -35.9525  255 255 255
-37.6822 -22.4524 -34.634  255 255 255
-38.8841 -36.202 22.4934  255 255 255
-44.5362 -66.6022 -53.4004  255 255 255
-43.8216 -32.3372 -33.4081  255 255 255
-43.1246 -29.371 -32.9958  255 255 255
-40.4455 13.2215 -32.9546  255 255 255
-39.9974 9.33366 -33.3515  255 255 255
-46.2858 -60.3332 26.4914  255 255 255
-51.4188 -65.4969 -49.0561  255 255 255
-41.7074 47.597 -33.597  255 255 255
-46.815 41.0563 -28.5743  255 255 255
-57.5207 -66.4176 -48.6004  255 255 255
-48.1864 16.7674 19.1402  255 255 255
-50.0445 -12.9669 23.3409  255 255 255
-53.3899 12.1899 -29.4011  255 255 255
-58.2179 -26.0153 -27.6986  255 255 255
-52.8507 -13.7165 21.4657  255 255 255
-57.9449 -24.6043 -36.1203  255 255 255
-59.4841 -24.814 -36.2198  255 255 255
-58.7497 -63.0882 5.16005  255 255 255
-66.2498 -66.1135 -47.1852  255 255 255
-67.7843 -65.7334 -49.917  255 255 255
-56.159 -64.2283 41.2351  255 255 255
-57.6223 0.868757 27.6105  255 255 255
-57.4478 -62.0924 39.9695  255 255 255
-57.3903 5.82991 31.7526  255 255 255
-58.7564 -14.7446 33.1434  255 255 255
-57.6031 -16.2115 31.0211  255 255 255
-58.0494 -9.22543 32.0283  255 255 255
-59.2237 -33.4127 29.8072  255 255 255
-57.43 3.80648 32.9718  255 255 255
-57.216 4.35827 32.7779  255 255 255
-57.3361 13.8641 30.7317  255 255 255
-60.6821 -9.89638 33.0683  255 255 255
-59.5404 -27.3803 40.4693  255 255 255
-64.2589 -64.9193 24.1943  255 255 255
-62.7384 -38.7918 29.0944  255 255 255
-64.9587 -65.9731 31.9289  255 255 255
-61.1095 -9.34993 53.5465  255 255 255
-66.676 -28.7794 32.4879  255 255 255
-65.7284 -56.2503 38.523  255 255 255
-64.1414 -25.9119 50.4967  255 255 255
-77.9352 -65.6927 -5.03008  255 255 255
-69.3592 -35.3178 35.3044  255 255 255
-67.2942 -26.2308 50.6751  255 255 255
-70.8011 -41.8236 35.3384  255 255 255
-71.9151 -40.7806 29.4129  255 255 255
-67.6551 -59.8022 48.3893  255 255 255
-72.7278 -21.4035 34.4174  255 255 255
-71.7899 -43.8551 35.7101  255 255 255
-65.0059 -20.7407 67.3847  255 255 255
-71.3006 -53.5039 40.4097  255 255 255
130.498 -2.18492 -87.483  255 255 255
47.2441 -61.8368 -0.746337  255 255 255
51.4713 -72.3119 -17.7891  255 255 255
44.9976 -66.1919 -0.400881  255 255 255
115.871 26.9679 -88.0831  255 255 255
51.6608 -31.9268 -5.77886  255 255 255
40.6099 -53.8784 2.63445  255 255 255
45.4712 -71.9367 -27.4763  255 255 255
105.504 48.5833 -79.6168  255 255 255
34.3586 -65.7247 -3.33153  255 255 255
34.0778 -65.6193 -3.50566  255 255 255
39.3277 -67.2532 -30.9771  255 255 255
34.8132 -66.6189 -22.241  255 255 255
33.2112 -35.7418 3.45195  255 255 255
47.5553 6.36195 -5.84577  255 255 255
48.1642 6.61054 -5.35293  255 255 255
36.4121 -12.8479 0.974208  255 255 255
36.1008 -67.6717 -40.6553  255 255 255
43.6403 18.9277 -0.478157  255 255 255
50.6587 32.8056 -6.05993  255 255 255
33.1512 -68.8776 -39.2976  255 255 255
29.5624 -68.291 -32.955  255 255 255
47.8759 29.9591 -4.78764  255 255 255
26.009 -61.5524 -19.5983  255 255 255
46.1779 38.6456 -3.74149  255 255 255
46.7028 9.15462 -63.7984  255 255 255
25.0031 -69.5796 -60.5561  255 255 255
23.4136 -69.8482 -71.2041  255 255 255
58.7396 62.1719 -77.7335  255 255 255
18.6716 41.493 -5.00164  255 255 255
1.97809 -68.7321 -67.8448  255 255 255
-5.62073 -64.3788 -34.5328  255 255 255
-11.7153 -62.7791 -7.73096  255 255 255
9.34937 13.5849 -50.8654  255 255 255
2.24819 40.9011 4.85744  255 255 255
-7.38109 16.1397 10.7082  255 255 255
-25.4302 -62.1629 -3.04529  255 255 255
-22.2474 -65.5934 -57.1863  255 255 255
-23.1567 18.9724 16.8667  255 255 255
-33.6701 -38.3766 18.6734  255 255 255
-43.9015 10.8301 -34.2299  255 255 255
-51.5964 -63.8761 -24.6316  255 255 255
-43.7983 21.0217 22.533  255 255 255
-49.2457 -35.9551 26.0177  255 255 255
-46.3048 -10.3314 21.3053  255 255 255
-49.8057 -12.1028 24.002  255 255 255
-50.8007 47.8558 -34.9368  255 255 255
-48.6873 19.4835 24.8077  255 255 255
-56.6249 9.99282 -33.7598  255 255 255
-57.1275 -39.1823 26.6857  255 255 255
-55.8022 10.782 27.3917  255 255 255
-57.2107 15.5139 25.6329  255 255 255
-58.7232 -59.9759 41.6398  255 255 255
-62.7998 -62.0955 29.8193  255 255 255
-60.5405 -26.0862 35.7187  255 255 255
-60.7198 -26.8532 50.3459  255 255 255
-63.1865 -28.0443 45.1806  255 255 255
-66.5976 -37.7566 33.9656  255 255 255
-62.2625 -7.57619 55.5946  255 255 255
-62.7083 -23.9292 58.8468  255 255 255
-68.8874 -33.1528 34.1539  255 255 255
-74.1371 -64.7599 11.8844  255 255 255
-74.6516 -65.1986 11.9647  255 255 255
-62.8508 -17.1419 62.8815  255 255 255
-68.9753 -56.9967 38.4428  255 255 255
-63.0364 -21.567 63.578  255 255 255
-63.7779 -24.9458 65.4547  255 255 255
-71.6277 -20.3869 32.4788  255 255 255
-71.5681 -41.2972 30.053  255 255 255
-70.1209 -66.1659 36.7735  255 255 255
-72.8159 -24.6226 34.8435  255 255 255
-68.1281 -27.0215 61.6966  255 255 255
136.421 -0.462182 -96.1399  255 255 255
116.622 -3.37462 -85.1444  255 255 255
115.923 -2.50438 -84.0429  255 255 255
116.07 5.1172 -85.7359  255 255 255
117.899 27.9134 -84.2553  255 255 255
107.874 9.16959 -76.3343  255 255 255
32.3026 -57.988 4.972  255 255 255
24.9488 -64.9612 2.97723  255 255 255
33.896 -32.7932 2.90602  255 255 255
28.7928 -64.6346 -20.9972  255 255 255
35.8797 -9.25708 1.41274  255 255 255
55.1545 8.27871 -69.6238  255 255 255
18.8599 -60.6663 -18.5503  255 255 255
36.9396 -30.8555 -56.6472  255 255 255
22.1016 -13.039 1.92567  255 255 255
20.8515 -44.7064 -23.5706  255 255 255
31.288 -30.1243 -50.5403  255 255 255
29.1919 -26.7355 -48.6869  255 255 255
46.0969 49.9792 -64.2855  255 255 255
8.30877 -28.7964 5.62836  255 255 255
28.1767 64.9426 -38.9966  255 255 255
3.76144 -19.2659 -47.0413  255 255 255
-0.624763 -20.1059 -45.8452  255 255 255
-12.3332 -68.4311 -32.5079  255 255 255
-7.72662 -19.4462 -44.7183  255 255 255
-24.7407 -60.0663 21.5658  255 255 255
-27.614 -61.9707 21.4622  255 255 255
-21.4263 -65.2735 -58.1933  255 255 255
-37.3828 -34.9922 -33.8211  255 255 255
-43.9132 -64.4976 -24.954  255 255 255
-48.3136 -37.2175 18.0314  255 255 255
-50.0486 -64.2667 22.4454  255 255 255
-49.739 11.7493 -36.0286  255 255 255
-54.7662 -23.0263 -30.119  255 255 255
-50.2329 19.118 24.198  255 255 255
-51.4218 19.3206 25.6767  255 255 255
-52.305 -5.82703 26.1865  255 255 255
-52.0214 -10.5331 26.0279  255 255 255
-63.1721 -38.7007 29.6064  255 255 255
-68.0629 -67.6339 30.7726  255 255 255
-70.0366 -48.4977 42.0977  255 255 255
-74.2132 -25.6124 33.5918  255 255 255
120.306 -7.97093 -92.9654  255 255 255
115.1 18.0037 -88.2873  255 255 255
29.9191 -59.4876 3.29557  255 255 255
29.4229 -66.7883 -1.89264  255 255 255
30.8852 -66.0907 -11.8818  255 255 255
26.7832 -58.473 5.26346  255 255 255
29.052 -34.5112 1.51466  255 255 255
30.2664 -12.8402 0.387082  255 255 255
24.4013 -61.179 -17.5423  255 255 255
34.4424 25.719 -1.70625  255 255 255
17.1957 -12.8007 2.22821  255 255 255
25.255 15.2364 -0.955145  255 255 255
10.1075 -60.1515 -14.7738  255 255 255
32.2983 49.9845 -2.07602  255 255 255
